BEGIN_19
-0.611812 -3.964388 -3.149126
-0.811668 -3.941099 -3.205232
-1.010929 -3.910373 -3.271400
-1.208252 -3.871779 -3.346169
-1.402309 -3.824903 -3.427888
-1.591796 -3.769313 -3.514818
-1.775411 -3.704565 -3.605227
-1.951847 -3.630221 -3.697469
-2.119781 -3.545846 -3.790037
-2.277867 -3.451046 -3.881599
-2.424735 -3.345442 -3.971002
-2.558986 -3.228670 -4.057261
-2.679235 -3.100435 -4.139549
-2.784103 -2.960254 -4.217176
-2.862589 -2.825633 -4.283385
-2.931135 -2.676170 -4.348845
-2.990273 -2.513520 -4.413194
-3.040506 -2.339365 -4.475946
-3.082352 -2.155378 -4.536543
-3.116335 -1.963216 -4.594369
-3.142988 -1.764542 -4.648787
-3.162836 -1.561002 -4.699168
-3.176404 -1.354258 -4.744952
-3.184195 -1.145976 -4.785684
-3.186693 -0.937841 -4.821068
-3.184735 -0.731430 -4.850084
-3.177592 -0.528879 -4.875568
-3.166780 -0.331557 -4.895051
-3.152313 -0.141401 -4.909896
-3.133802 0.048301 -4.921001
-3.110542 0.244365 -4.928434
-3.082846 0.445283 -4.930665
-3.049345 0.649266 -4.929945
-3.011112 0.854877 -4.923232
-2.967551 1.060410 -4.911299
-2.918442 1.264181 -4.894153
-2.863556 1.464499 -4.871920
-2.802653 1.659650 -4.844795
-2.735493 1.847919 -4.812997
-2.661840 2.027585 -4.776724
-2.581468 2.196939 -4.736121
-2.494165 2.354279 -4.691251
-2.399729 2.497911 -4.642071
-2.297998 2.626173 -4.588439
-2.168763 2.757934 -4.519221
-2.025558 2.876728 -4.441370
-1.869933 2.983105 -4.355946
-1.703418 3.077317 -4.264213
-1.527485 3.159681 -4.167709
-1.343579 3.230469 -4.068293
-1.153105 3.289910 -3.968127
-0.957432 3.338178 -3.869638
-0.757906 3.375417 -3.775430
-0.555870 3.401743 -3.688166
-0.352705 3.417258 -3.610415
-0.149824 3.422148 -3.544490
0.051193 3.416640 -3.492287
0.230714 3.403239 -3.457541
0.421612 3.381227 -3.432046
0.621764 3.350411 -3.416558
0.828904 3.310735 -3.411017
1.040674 3.262246 -3.414618
1.254668 3.205076 -3.425979
1.468453 3.139404 -3.443334
1.679580 3.065421 -3.464772
1.885617 2.983299 -3.488417
2.084160 2.893171 -3.512595
2.272851 2.795129 -3.535932
2.449370 2.689205 -3.557389
2.611435 2.575370 -3.576275
2.756802 2.453551 -3.592205
2.883230 2.323655 -3.605059
2.993428 2.182319 -3.615287
3.091875 2.027163 -3.623420
3.178950 1.859691 -3.629565
3.255172 1.681414 -3.633789
3.320999 1.493866 -3.636086
3.376879 1.298577 -3.636403
3.423265 1.097072 -3.634662
3.460604 0.890882 -3.630773
3.489343 0.681527 -3.624663
3.509939 0.470527 -3.616293
3.522852 0.259382 -3.605682
3.528543 0.049598 -3.592920
3.527491 -0.157347 -3.578183
3.520309 -0.359910 -3.560748
3.507102 -0.556848 -3.543925
3.488092 -0.755854 -3.524131
3.462461 -0.964328 -3.501394
3.429924 -1.179937 -3.475706
3.390208 -1.400358 -3.447199
3.343061 -1.623294 -3.416156
3.288252 -1.846469 -3.383002
3.225513 -2.067601 -3.348275
3.154698 -2.284449 -3.312619
3.075585 -2.494786 -3.276716
2.987917 -2.696305 -3.241269
2.891505 -2.886787 -3.206970
2.786135 -3.063963 -3.174481
2.671584 -3.225564 -3.144412
2.547622 -3.369310 -3.117309
2.413995 -3.492877 -3.093659
2.265603 -3.598169 -3.073081
2.099073 -3.689175 -3.054734
1.916794 -3.766662 -3.038459
1.721150 -3.831504 -3.024247
1.514531 -3.884512 -3.012269
1.299382 -3.926567 -3.002906
1.078148 -3.958637 -2.996747
0.853328 -3.981626 -2.994562
0.627409 -3.996464 -2.997231
0.402914 -4.004088 -3.005654
0.182337 -4.005419 -3.020611
-0.031825 -4.001329 -3.042610
-0.237146 -3.992649 -3.071749
-0.431237 -3.980113 -3.107593
END_19
