BEGIN_8
30.008146 -16.904818 -11.453031
29.993027 -16.738041 -11.339075
29.941603 -16.557741 -11.245152
29.886862 -16.389717 -11.158044
29.831556 -16.217501 -11.072208
29.761215 -16.051924 -10.992359
29.677256 -15.882243 -10.922661
29.591372 -15.711130 -10.873118
29.505337 -15.541316 -10.814186
29.442728 -15.369528 -10.750986
29.388670 -15.205990 -10.659662
29.347530 -15.054573 -10.538438
29.328028 -14.918331 -10.402254
29.304274 -14.774035 -10.269702
29.272484 -14.619050 -10.148561
29.223232 -14.445570 -10.052404
29.167564 -14.272458 -9.977168
29.113808 -14.098063 -9.892827
29.063026 -13.924145 -9.811777
29.011311 -13.748618 -9.736041
28.968739 -13.574225 -9.650039
28.929325 -13.402232 -9.560977
28.900848 -13.230301 -9.466022
28.878614 -13.062338 -9.362813
28.859768 -12.891566 -9.262383
28.835804 -12.713530 -9.172485
28.818623 -12.540122 -9.073470
28.797161 -12.361822 -8.981282
28.773668 -12.187373 -8.884573
28.730190 -11.998172 -8.813038
28.684132 -11.813254 -8.746521
28.631216 -11.625672 -8.690130
28.575033 -11.438430 -8.644511
28.528494 -11.255538 -8.576981
28.484461 -11.075867 -8.507394
28.443825 -10.894631 -8.434353
28.410982 -10.719148 -8.349401
28.375231 -10.541120 -8.268037
28.337431 -10.364651 -8.189329
28.296352 -10.186487 -8.113460
28.238714 -10.006368 -8.050444
28.196056 -9.832491 -7.977896
28.154640 -9.654608 -7.898323
28.127504 -9.484542 -7.805061
28.090775 -9.305923 -7.722043
28.075201 -9.140402 -7.625153
28.057966 -8.964232 -7.524655
28.063232 -8.803462 -7.413844
28.059248 -8.634690 -7.306788
28.052259 -8.463298 -7.203330
28.047512 -8.293296 -7.092639
28.026642 -8.117040 -6.997106
28.003164 -7.942842 -6.896921
27.967239 -7.767843 -6.798890
27.913357 -7.588433 -6.713272
27.873569 -7.418537 -6.608029
27.808607 -7.242439 -6.519212
27.738327 -7.073715 -6.428404
27.646997 -6.900538 -6.349694
27.546473 -6.740312 -6.278788
27.443108 -6.579835 -6.197856
27.322968 -6.425979 -6.139144
27.212322 -6.277665 -6.063005
27.087173 -6.130123 -5.995123
26.950094 -5.995965 -5.954396
26.821945 -5.856992 -5.893600
26.686749 -5.724909 -5.848862
26.551561 -5.588827 -5.801133
26.441351 -5.444423 -5.738793
26.321804 -5.298382 -5.682842
26.232361 -5.155463 -5.599813
26.144472 -5.006798 -5.516687
26.061249 -4.851820 -5.440115
25.981264 -4.690994 -5.371577
25.905872 -4.524412 -5.306531
25.839228 -4.359214 -5.233906
25.787699 -4.199841 -5.126482
25.746370 -4.042287 -5.023734
25.688295 -3.872245 -4.932550
25.635252 -3.695183 -4.863183
25.568657 -3.516798 -4.818753
25.504120 -3.343499 -4.797079
25.448261 -3.165985 -4.757853
25.418562 -2.993072 -4.699047
25.403749 -2.820726 -4.641287
25.402763 -2.648066 -4.554641
25.437248 -2.482811 -4.474923
25.472132 -2.311287 -4.387784
25.490431 -2.131752 -4.316803
25.489792 -1.935442 -4.250506
25.490675 -1.742738 -4.189673
25.487322 -1.548398 -4.119609
25.470303 -1.349623 -4.066220
25.454693 -1.158213 -3.999102
25.408937 -0.957117 -3.951962
25.346161 -0.767292 -3.910483
25.283747 -0.577661 -3.859615
25.207058 -0.392047 -3.814352
25.141090 -0.211875 -3.760038
25.033585 -0.041212 -3.741337
24.919909 0.122976 -3.732598
24.801014 0.295096 -3.727448
24.724215 0.466309 -3.661773
24.651129 0.618938 -3.597975
24.594446 0.779966 -3.503781
24.537081 0.938927 -3.409870
24.480089 1.104153 -3.324434
24.405064 1.281160 -3.258637
24.317417 1.450304 -3.201665
24.219095 1.630682 -3.176905
24.086746 1.785505 -3.188504
23.948498 1.919914 -3.196698
23.860075 2.127808 -3.175631
23.769072 2.268248 -3.112738
23.691111 2.440274 -3.062916
23.607864 2.602839 -3.008057
23.546556 2.770676 -2.949183
23.461262 2.935045 -2.918746
23.389656 3.099136 -2.894614
23.325459 3.255282 -2.883421
23.265341 3.404761 -2.870875
23.227962 3.560945 -2.863649
23.209654 3.721201 -2.778531
23.216330 3.877358 -2.731863
23.218687 4.043817 -2.652306
23.250473 4.208003 -2.571504
23.259590 4.396823 -2.512829
23.248043 4.585569 -2.454005
23.238157 4.780234 -2.397756
23.217579 4.978648 -2.329563
23.164606 5.167848 -2.298185
23.132406 5.368637 -2.231736
23.112688 5.555628 -2.168274
23.060493 5.744100 -2.102977
22.981464 5.924788 -2.049065
22.915249 6.110260 -1.982466
22.814411 6.284961 -1.936181
22.704271 6.452914 -1.887661
22.598839 6.622031 -1.833738
22.471678 6.778452 -1.785695
22.331354 6.919137 -1.750006
22.192717 7.062567 -1.708013
22.048134 7.193379 -1.674785
21.901966 7.321823 -1.653741
21.759644 7.444481 -1.641818
21.633486 7.600470 -1.598401
21.537861 7.736284 -1.523991
21.441978 7.892018 -1.456844
21.365911 8.045510 -1.371636
21.279892 8.206209 -1.299224
21.178102 8.369673 -1.251306
21.075365 8.535419 -1.200051
20.990225 8.703155 -1.121833
20.871307 8.858622 -1.088556
20.778494 9.025335 -1.015277
20.675064 9.194222 -0.949236
20.541107 9.345485 -0.913344
20.415297 9.488723 -0.895308
20.282270 9.637442 -0.887130
20.162624 9.763512 -0.903749
20.046967 9.930957 -0.905716
19.956388 10.072109 -0.835171
19.906868 10.228978 -0.776910
19.897490 10.400016 -0.683697
19.871454 10.574892 -0.619510
19.842010 10.758225 -0.553053
19.811470 10.945206 -0.492913
19.789856 11.139197 -0.425875
19.723188 11.317555 -0.377749
19.698696 11.509051 -0.302245
19.663700 11.694314 -0.234735
19.600924 11.876841 -0.170166
19.543293 12.057228 -0.106092
19.467983 12.239430 -0.050213
19.384232 12.413312 -0.002648
19.330595 12.597262 0.072901
19.240265 12.765025 0.123303
19.164228 12.947018 0.190178
19.103619 13.110182 0.270843
19.001104 13.288599 0.323237
18.885208 13.448862 0.380068
18.782431 13.610390 0.448853
18.642157 13.766534 0.494859
18.485361 13.889183 0.529423
18.335224 14.028430 0.577416
18.181761 14.148853 0.624517
18.013987 14.264544 0.664725
17.838696 14.365316 0.699322
17.665503 14.468389 0.743669
17.482708 14.556817 0.772806
17.298849 14.640953 0.810456
17.110550 14.721314 0.841650
16.910881 14.777876 0.860666
16.708672 14.812572 0.869773
16.505344 14.839160 0.880594
16.309902 14.887933 0.909902
16.110950 14.914650 0.918016
15.921635 14.929249 0.921941
15.745836 14.947547 0.896882
15.575940 14.994132 0.884140
15.422351 15.060484 0.889638
15.280580 15.159472 0.943278
15.170823 15.276700 0.998958
15.079423 15.416894 1.079299
15.001604 15.568022 1.148717
14.918291 15.729492 1.215942
14.827453 15.894029 1.273155
14.746279 16.066015 1.338561
14.657808 16.237907 1.399928
14.553203 16.403671 1.454035
14.444514 16.569693 1.512060
14.338173 16.733946 1.570878
14.194896 16.877808 1.622911
14.058052 17.022568 1.675294
13.916556 17.161694 1.728669
13.764397 17.291782 1.778542
13.609902 17.413900 1.823619
13.452875 17.532711 1.867452
13.295112 17.649776 1.915348
13.148023 17.777922 1.966877
12.986772 17.889309 2.007093
12.827156 18.004539 2.050530
12.657689 18.112686 2.088942
12.505368 18.234959 2.138477
12.330575 18.336149 2.171354
12.156945 18.430573 2.203148
11.982763 18.535326 2.244606
11.814753 18.643049 2.286056
11.642462 18.741047 2.330231
11.456610 18.823790 2.369856
11.263356 18.882015 2.398233
11.057446 18.907173 2.423155
10.853654 18.919952 2.454099
10.647629 18.917889 2.486182
10.445848 18.930088 2.535023
10.247929 18.894773 2.558165
10.060388 18.860018 2.586384
9.883994 18.794542 2.598104
9.732272 18.722263 2.588113
9.586076 18.670637 2.574564
9.424530 18.668659 2.584216
9.304203 18.723883 2.618387
9.194481 18.818357 2.660983
9.117952 18.943125 2.713201
9.042975 19.085447 2.749072
8.961380 19.243174 2.780272
8.900846 19.422392 2.818613
8.832509 19.605698 2.854911
8.766440 19.789671 2.898873
8.673580 19.978399 2.932276
8.546607 20.136492 2.964568
8.402559 20.283447 2.994417
8.267605 20.434759 3.042268
8.094857 20.548922 3.064254
7.909559 20.632288 3.074542
7.731273 20.730621 3.100940
7.541260 20.804420 3.120569
7.354244 20.882219 3.150156
7.161726 20.944962 3.178826
6.967886 21.007439 3.209426
6.774614 21.063545 3.242912
6.574562 21.094879 3.257191
6.377205 21.119516 3.261179
6.175549 21.140663 3.283229
5.987495 21.209684 3.308542
5.794723 21.254436 3.335589
5.598478 21.286388 3.355891
5.403373 21.335011 3.385392
5.212118 21.381662 3.415230
5.015876 21.414768 3.431943
4.821537 21.439171 3.438661
4.622236 21.477373 3.456856
4.438972 21.542665 3.486418
4.252804 21.604391 3.516467
4.061003 21.655567 3.538704
3.867807 21.709621 3.559630
3.675265 21.764324 3.585368
3.477194 21.810543 3.601779
3.280128 21.859362 3.625654
3.074632 21.889759 3.630881
2.870980 21.911270 3.645190
2.661711 21.915497 3.656133
2.456660 21.899879 3.666954
2.249331 21.866714 3.682915
2.052893 21.808588 3.698856
1.859638 21.730436 3.715850
1.686273 21.631159 3.729646
1.515724 21.529385 3.743582
1.372266 21.413206 3.737008
1.243849 21.302366 3.719357
1.084309 21.236635 3.714376
0.935081 21.209721 3.695064
0.783161 21.214703 3.696073
0.640767 21.278719 3.725688
0.515257 21.371067 3.758265
0.400485 21.494493 3.789622
0.269413 21.621370 3.800202
0.131631 21.756130 3.814635
-0.007617 21.897524 3.827708
-0.161778 22.026251 3.847237
-0.342723 22.132322 3.866250
-0.537427 22.210178 3.884418
-0.739287 22.266508 3.898172
-0.942735 22.324516 3.924438
-1.152397 22.342163 3.934811
-1.360891 22.334908 3.957936
-1.567060 22.293938 3.937225
-1.768294 22.251827 3.926996
-1.969858 22.227573 3.926854
-2.171172 22.196440 3.926605
-2.366245 22.166216 3.920023
-2.564780 22.143423 3.922857
-2.751943 22.087212 3.886552
-2.954992 22.059984 3.891694
-3.150820 22.054396 3.892410
-3.349456 22.048815 3.899880
-3.548399 22.039146 3.901958
-3.746593 22.026863 3.901599
-3.945292 22.015066 3.902098
-4.145452 22.010990 3.906306
-4.346716 22.006039 3.909282
-4.548024 22.001129 3.911330
-4.750268 21.987890 3.904977
-4.951447 21.960833 3.888388
-5.155542 21.952671 3.884579
-5.358404 21.927160 3.868874
-5.559920 21.891594 3.852563
-5.757339 21.831287 3.828287
-5.955640 21.776957 3.806627
-6.155668 21.718069 3.793098
-6.347395 21.647217 3.771488
-6.537834 21.556778 3.742189
-6.695797 21.432451 3.709912
-6.841167 21.289412 3.680639
-6.989997 21.148350 3.659541
-7.138262 20.995621 3.640472
-7.249301 20.824141 3.622574
-7.351752 20.645599 3.614496
-7.426622 20.455297 3.592697
-7.506470 20.272291 3.574486
-7.588946 20.096924 3.557831
-7.673098 19.934044 3.538807
-7.729752 19.774572 3.493171
-7.828263 19.647430 3.449220
-7.958871 19.563988 3.419137
-8.101883 19.527391 3.399172
-8.258104 19.520649 3.403147
-8.415667 19.553555 3.411134
-8.575904 19.612917 3.403803
-8.749153 19.667658 3.380724
-8.928819 19.728296 3.360675
-9.111741 19.799086 3.342519
-9.302641 19.852875 3.322147
-9.505103 19.894905 3.303910
-9.708524 19.918262 3.288135
-9.917913 19.912806 3.262006
-10.118940 19.871466 3.225062
-10.319370 19.829525 3.200455
-10.515573 19.765142 3.167708
-10.700619 19.690145 3.134443
-10.888471 19.612280 3.103674
-11.079205 19.542686 3.090150
-11.257780 19.448177 3.047032
-11.438524 19.359671 3.018410
-11.618036 19.267443 2.986611
-11.784764 19.159954 2.945971
-11.955501 19.056765 2.909563
-12.125803 18.954165 2.875239
-12.291004 18.840046 2.837253
-12.450274 18.720974 2.797943
-12.619721 18.610888 2.765236
-12.768531 18.479811 2.723080
-12.920685 18.353241 2.685175
-13.064673 18.218023 2.641591
-13.199909 18.076855 2.596433
-13.328033 17.931288 2.546866
-13.444114 17.772381 2.488203
-13.551343 17.616777 2.426911
-13.654251 17.454088 2.364718
-13.729905 17.297447 2.285996
-13.851440 17.139355 2.212831
-13.963539 17.022184 2.169283
-14.110878 16.914089 2.138038
-14.256064 16.819260 2.100524
-14.408240 16.739887 2.051146
-14.579366 16.676134 2.027297
-14.763874 16.655745 2.059824
-14.943678 16.657064 2.109152
-15.124505 16.680302 2.178027
-15.323387 16.686438 2.211467
-15.527579 16.680677 2.224041
-15.738274 16.654404 2.223570
-15.939492 16.600647 2.210639
-16.136713 16.545118 2.198043
-16.335398 16.477139 2.182200
-16.519661 16.405817 2.156393
-16.711214 16.318398 2.128209
-16.888220 16.228523 2.093466
-17.069572 16.127316 2.063590
-17.240210 16.021624 2.027075
-17.419556 15.912736 2.005168
-17.570902 15.790288 1.954520
-17.722706 15.660806 1.910758
-17.866938 15.527371 1.862126
-17.989780 15.374028 1.798828
-18.109867 15.218557 1.741458
-18.230026 15.063768 1.685339
-18.341618 14.902496 1.627256
-18.434647 14.736852 1.557886
-18.536047 14.571996 1.498053
-18.626472 14.403436 1.433660
-18.714382 14.234297 1.368675
-18.800499 14.062208 1.306449
-18.879829 13.888675 1.238493
-18.962175 13.715170 1.176683
-19.039478 13.539197 1.112176
-19.107397 13.361197 1.045585
-19.161356 13.177450 0.977739
-19.219027 12.996350 0.915680
-19.266155 12.813511 0.844582
-19.308722 12.632076 0.780388
-19.337055 12.449706 0.701519
-19.393818 12.274799 0.644092
-19.457235 12.101216 0.583272
-19.501934 11.936415 0.488208
-19.591440 11.761243 0.434919
-19.690186 11.610693 0.399158
-19.807741 11.458751 0.370272
-19.922686 11.307813 0.330831
-20.038532 11.154593 0.279387
-20.158190 11.001802 0.230304
-20.260952 10.845034 0.158388
-20.370943 10.686099 0.097281
-20.490940 10.523872 0.048063
-20.597351 10.363721 -0.019755
-20.704741 10.197924 -0.100949
-20.795990 10.039966 -0.196570
-20.913656 9.873135 -0.284632
-21.013241 9.726151 -0.369069
-21.169970 9.542780 -0.427270
-21.341501 9.409405 -0.432332
-21.505920 9.257385 -0.469044
-21.641804 9.108762 -0.527221
-21.803768 8.974814 -0.554447
-21.946056 8.834796 -0.596195
-22.074183 8.678769 -0.642638
-22.197823 8.520720 -0.691655
-22.303181 8.355382 -0.747668
-22.401791 8.188221 -0.790233
-22.483801 8.007424 -0.853216
-22.554291 7.823641 -0.911040
-22.624905 7.642279 -0.963369
-22.688028 7.455429 -1.014336
-22.738611 7.260307 -1.067487
-22.801529 7.069211 -1.115454
-22.826103 6.869201 -1.166466
-22.834297 6.680930 -1.231427
-22.849825 6.492943 -1.285240
-22.858786 6.303380 -1.348112
-22.837479 6.140306 -1.421874
-22.868744 5.941952 -1.494387
-22.902746 5.764195 -1.547018
-22.958490 5.578029 -1.593837
-23.027008 5.398561 -1.623436
-23.110956 5.226385 -1.640904
-23.195999 5.054903 -1.668437
-23.265778 4.884366 -1.722850
-23.327518 4.727109 -1.801416
-23.425106 4.559652 -1.841465
-23.533253 4.407381 -1.855211
-23.650980 4.255655 -1.852455
-23.776695 4.112443 -1.850319
-23.912952 3.962971 -1.844340
-24.049549 3.822189 -1.844920
-24.186041 3.658802 -1.859805
-24.294168 3.505001 -1.921030
-24.403025 3.343173 -1.966618
-24.495407 3.172557 -2.042478
-24.568605 3.027777 -2.143609
-24.662266 2.864933 -2.218678
-24.750504 2.712613 -2.286542
-24.861256 2.553788 -2.336651
-24.978092 2.406144 -2.363365
-25.102812 2.252244 -2.399408
-25.194813 2.083927 -2.466725
-25.314316 1.924063 -2.505218
-25.420933 1.750687 -2.556723
-25.501532 1.578431 -2.626979
-25.587372 1.398173 -2.688359
-25.634823 1.216123 -2.783036
-25.699535 1.033992 -2.849275
-25.735512 0.846307 -2.947888
-25.758970 0.676186 -3.038895
-25.784935 0.497720 -3.131724
-25.804182 0.327086 -3.219999
-25.823673 0.157456 -3.315755
-25.813425 0.004706 -3.437149
-25.825737 -0.147150 -3.545877
-25.858784 -0.316578 -3.630630
-25.919605 -0.494384 -3.667532
-25.981211 -0.671648 -3.656868
-26.055874 -0.845095 -3.665756
-26.138472 -1.023918 -3.680449
-26.221350 -1.199151 -3.705155
-26.283239 -1.387780 -3.757402
-26.335712 -1.553758 -3.849890
-26.377043 -1.705554 -3.973828
-26.424320 -1.864963 -4.060431
-26.502125 -2.036728 -4.138530
-26.589579 -2.200209 -4.147797
-26.684599 -2.362826 -4.169837
-26.780067 -2.526255 -4.207721
-26.865757 -2.676666 -4.284260
-26.954542 -2.825705 -4.365493
-27.035944 -2.968136 -4.459715
-27.129284 -3.113778 -4.536271
-27.229584 -3.262657 -4.601432
-27.362707 -3.409526 -4.630043
-27.492338 -3.547613 -4.653900
-27.633640 -3.680912 -4.668940
-27.774261 -3.824370 -4.700827
-27.887943 -3.975467 -4.759731
-28.018293 -4.123875 -4.795320
-28.136795 -4.286513 -4.851771
-28.241356 -4.451242 -4.914746
-28.346954 -4.623186 -4.973256
-28.431206 -4.802152 -5.041357
-28.494621 -4.974583 -5.123937
-28.565578 -5.154418 -5.194299
-28.614058 -5.330564 -5.279523
-28.650595 -5.504992 -5.367606
-28.679621 -5.682202 -5.462471
-28.722176 -5.860375 -5.536269
-28.746494 -6.039025 -5.629120
-28.765594 -6.214227 -5.719223
-28.783903 -6.388723 -5.817979
-28.813728 -6.568854 -5.894197
-28.838934 -6.743383 -5.983368
-28.876854 -6.923025 -6.063370
-28.903646 -7.094337 -6.149199
-28.963480 -7.278575 -6.210988
-29.011662 -7.455664 -6.286142
-29.070080 -7.636279 -6.350270
-29.128601 -7.817000 -6.412194
-29.172876 -7.989954 -6.491855
-29.217131 -8.167610 -6.572466
-29.238737 -8.327083 -6.673391
-29.291594 -8.514822 -6.751710
-29.335152 -8.688462 -6.830845
-29.397108 -8.871346 -6.897218
-29.454424 -9.052358 -6.954226
-29.510336 -9.232846 -7.022273
-29.555176 -9.417567 -7.087196
-29.576334 -9.588137 -7.200039
-29.600798 -9.768835 -7.279490
-29.590790 -9.926212 -7.412371
-29.612938 -10.105132 -7.500499
-29.625942 -10.273159 -7.601760
-29.648207 -10.443849 -7.694446
-29.684444 -10.617487 -7.788772
-29.737022 -10.794012 -7.844006
-29.783165 -10.963809 -7.928855
-29.844944 -11.139093 -7.994692
-29.908592 -11.311472 -8.061007
-29.970497 -11.484367 -8.142853
-30.049709 -11.659600 -8.186972
-30.125626 -11.833218 -8.249797
-30.196890 -12.004389 -8.321086
-30.273142 -12.175795 -8.394028
-30.338726 -12.345671 -8.480148
-30.404406 -12.513043 -8.574272
-30.470318 -12.682741 -8.662969
-30.532028 -12.849222 -8.758052
-30.599142 -13.021884 -8.835565
-30.662218 -13.192314 -8.923016
-30.708426 -13.360190 -9.016083
-30.745874 -13.520925 -9.133382
-30.780304 -13.682528 -9.241159
-30.808329 -13.842547 -9.359578
-30.854027 -14.008597 -9.456387
-30.907772 -14.176518 -9.545295
-30.939295 -14.344019 -9.651546
-30.996592 -14.513438 -9.739523
-31.027308 -14.680192 -9.845068
-31.065617 -14.851992 -9.941322
-31.095533 -15.021628 -10.042560
-31.116648 -15.189023 -10.145644
-31.151228 -15.366120 -10.239539
-31.192799 -15.539729 -10.323778
-31.232939 -15.717772 -10.402302
-31.235920 -15.882464 -10.510681
-31.272852 -16.069403 -10.594228
-31.287161 -16.244349 -10.689803
-31.322132 -16.428581 -10.766017
-31.338686 -16.611298 -10.848469
-31.352203 -16.797060 -10.924873
-31.358437 -16.982010 -11.001682
-31.362364 -17.169954 -11.070337
-31.362202 -17.360390 -11.137704
-31.342922 -17.550503 -11.203465
-31.337078 -17.743345 -11.262394
-31.308023 -17.938452 -11.313725
-31.266888 -18.131029 -11.366125
-31.220636 -18.323484 -11.408020
-31.150053 -18.511429 -11.457889
-31.067265 -18.691805 -11.492328
-30.980356 -18.874359 -11.526438
-30.865170 -19.041862 -11.557086
-30.799692 -19.230011 -11.573624
-30.724825 -19.416700 -11.587056
-30.641087 -19.596247 -11.590867
-30.551004 -19.777948 -11.591350
-30.432774 -19.939339 -11.581673
-30.310749 -20.100597 -11.562059
-30.218006 -20.276730 -11.538564
-30.100756 -20.437056 -11.506823
-30.004044 -20.608572 -11.461473
-29.879255 -20.764017 -11.416529
-29.747236 -20.906971 -11.359300
-29.630051 -21.060238 -11.295290
-29.486488 -21.192287 -11.227851
-29.340385 -21.301447 -11.147087
-29.187140 -21.407623 -11.067052
-29.044613 -21.516165 -10.975924
-28.887587 -21.609026 -10.888650
-28.732573 -21.692764 -10.797222
-28.573235 -21.775307 -10.706349
-28.430302 -21.869761 -10.601627
-28.285719 -21.960865 -10.495754
-28.126732 -22.032768 -10.395545
-27.979162 -22.121302 -10.283463
-27.814928 -22.181824 -10.185833
-27.654503 -22.250906 -10.083316
-27.478739 -22.301653 -9.998445
-27.324305 -22.368935 -9.897084
-27.177141 -22.436495 -9.789315
-27.029247 -22.508381 -9.685915
-26.889679 -22.589008 -9.564498
-26.764112 -22.677267 -9.441297
-26.625961 -22.758322 -9.325210
-26.479942 -22.833769 -9.213548
-26.337282 -22.913193 -9.099128
-26.181299 -22.981419 -8.991591
-26.025587 -23.049507 -8.884749
-25.869080 -23.116961 -8.775688
-25.700872 -23.174994 -8.674321
-25.546984 -23.240774 -8.559792
-25.373238 -23.292532 -8.462588
-25.197502 -23.335094 -8.368072
-25.017220 -23.378263 -8.274383
-24.832346 -23.404877 -8.193105
-24.638762 -23.420530 -8.117685
-24.444656 -23.423317 -8.057375
-24.245956 -23.411100 -8.005145
-24.044247 -23.376144 -7.980263
-23.846014 -23.320793 -7.969810
-23.650759 -23.259644 -7.967684
-23.461401 -23.168877 -7.979465
-23.277561 -23.079695 -8.005401
-23.107672 -22.961750 -8.043425
-22.949745 -22.842506 -8.093195
-22.801289 -22.705149 -8.146743
-22.675148 -22.567120 -8.223638
-22.535608 -22.429615 -8.277894
-22.409483 -22.288399 -8.342743
-22.288010 -22.143513 -8.410850
-22.157452 -22.001762 -8.465327
-22.035313 -21.856838 -8.522309
-21.923307 -21.705484 -8.589401
-21.804111 -21.556803 -8.642292
-21.699799 -21.402252 -8.715053
-21.592258 -21.246588 -8.775988
-21.479067 -21.092506 -8.829076
-21.383959 -20.936876 -8.899466
-21.277126 -20.776365 -8.956487
-21.164722 -20.622723 -9.000668
-21.052338 -20.467827 -9.043462
-20.955093 -20.309937 -9.095834
-20.833368 -20.152613 -9.124012
-20.714233 -20.002666 -9.146823
-20.604893 -19.838047 -9.177490
-20.481535 -19.687737 -9.183649
-20.377350 -19.511566 -9.207791
-20.277609 -19.339077 -9.226353
-20.185228 -19.155977 -9.244838
-20.104668 -18.970613 -9.261634
-20.034678 -18.778494 -9.276829
-19.974199 -18.582623 -9.288004
-19.922983 -18.386032 -9.304213
-19.898329 -18.186962 -9.314202
-19.885309 -17.986998 -9.332059
-19.856567 -17.786245 -9.340798
-19.828241 -17.590330 -9.337444
-19.813349 -17.392542 -9.339774
-19.802910 -17.194256 -9.343132
-19.792696 -16.996973 -9.343115
-19.777548 -16.800915 -9.333344
-19.743778 -16.606762 -9.301523
-19.715366 -16.414833 -9.267489
-19.686693 -16.220118 -9.236128
-19.659906 -16.025143 -9.208816
-19.635923 -15.826427 -9.195505
-19.613470 -15.628246 -9.181310
-19.592779 -15.429541 -9.160608
-19.568119 -15.232327 -9.128597
-19.549345 -15.033796 -9.102316
-19.533859 -14.832769 -9.091558
-19.522345 -14.632347 -9.087195
-19.510044 -14.431850 -9.081741
-19.498432 -14.231429 -9.077557
-19.484999 -14.032721 -9.062222
-19.473007 -13.835413 -9.057629
-19.464899 -13.638207 -9.062093
-19.451946 -13.440998 -9.061518
-19.431957 -13.246746 -9.047376
-19.405418 -13.058590 -9.026978
-19.368738 -12.863997 -9.000672
-19.322517 -12.683028 -8.951724
-19.271898 -12.501887 -8.904409
-19.215025 -12.322172 -8.846411
-19.161596 -12.137752 -8.795299
-19.113367 -11.946862 -8.754499
-19.074348 -11.752954 -8.726735
-19.037138 -11.556509 -8.705854
-19.000494 -11.361520 -8.678494
-18.966120 -11.165594 -8.656056
-18.927065 -10.974982 -8.617123
-18.894897 -10.780501 -8.595689
-18.859825 -10.586824 -8.571958
-18.820705 -10.397898 -8.537117
-18.779886 -10.212860 -8.496174
-18.728008 -10.024724 -8.450703
-18.664087 -9.850833 -8.384912
-18.583775 -9.693016 -8.308071
-18.517815 -9.519478 -8.243952
-18.450481 -9.347679 -8.177479
-18.384064 -9.173075 -8.110358
-18.294306 -9.015440 -8.029289
-18.228077 -8.840698 -7.951324
-18.162134 -8.667216 -7.877785
-18.109287 -8.485810 -7.799296
-18.071863 -8.301302 -7.727302
-18.025419 -8.123774 -7.645373
-17.999208 -7.938795 -7.574100
-17.973164 -7.756740 -7.496142
-17.937321 -7.579407 -7.412527
-17.905333 -7.404854 -7.325234
-17.879070 -7.225157 -7.243762
-17.847105 -7.054007 -7.147421
-17.819992 -6.878252 -7.053971
-17.801170 -6.697286 -6.974944
-17.781527 -6.517882 -6.886700
-17.776194 -6.326998 -6.820304
-17.759563 -6.147964 -6.732069
-17.748661 -5.964147 -6.652614
-17.736147 -5.776525 -6.582111
-17.724453 -5.587803 -6.514864
-17.706264 -5.404814 -6.440067
-17.692842 -5.217580 -6.369731
-17.656769 -5.045962 -6.275171
-17.629681 -4.862861 -6.201071
-17.604876 -4.675855 -6.140255
-17.568209 -4.492344 -6.079374
-17.544735 -4.303688 -6.019739
-17.474953 -4.148176 -5.911618
-17.416689 -3.984282 -5.819304
-17.350471 -3.819467 -5.729527
-17.288515 -3.649397 -5.652850
-17.224220 -3.468709 -5.598108
-17.155434 -3.297895 -5.535179
-17.082897 -3.119315 -5.479818
-16.987926 -2.966368 -5.403728
-16.896027 -2.804644 -5.342481
-16.807161 -2.643001 -5.275142
-16.689503 -2.493724 -5.207405
-16.568645 -2.354162 -5.136829
-16.477545 -2.181345 -5.072247
-16.383013 -2.020457 -5.002912
-16.299164 -1.843709 -4.934363
-16.226191 -1.672483 -4.869139
-16.155174 -1.489526 -4.798960
-16.120632 -1.299002 -4.744617
-16.048138 -1.117633 -4.680676
-15.991361 -0.937178 -4.618584
-15.929464 -0.756817 -4.555395
-15.866861 -0.578159 -4.490656
-15.805100 -0.398459 -4.427189
-15.746818 -0.215322 -4.371702
-15.690554 -0.030417 -4.318368
-15.633366 0.153038 -4.266536
-15.583483 0.341700 -4.224712
-15.519788 0.522595 -4.171693
-15.468528 0.711655 -4.138223
-15.417052 0.898684 -4.126709
-15.355519 1.083587 -4.070788
-15.278242 1.251556 -4.009255
-15.197822 1.412340 -3.940420
-15.121527 1.590255 -3.901362
-15.012961 1.731562 -3.799758
-14.913337 1.885465 -3.728242
-14.811313 2.042098 -3.660105
-14.699220 2.189460 -3.574839
-14.593145 2.349190 -3.511992
-14.484313 2.502452 -3.442003
-14.375549 2.659262 -3.378725
-14.278339 2.826458 -3.330325
-14.174363 2.988539 -3.277862
-14.078288 3.159815 -3.242035
-13.975303 3.326235 -3.197396
-13.869000 3.488055 -3.145770
-13.741444 3.634088 -3.087750
-13.631265 3.796445 -3.036749
-13.521717 3.957953 -2.986704
-13.420781 4.122897 -2.933785
-13.332787 4.298178 -2.887254
-13.240985 4.468856 -2.831434
-13.162232 4.642467 -2.776938
-13.089518 4.819183 -2.719102
-13.047947 5.007897 -2.672134
-12.989885 5.190239 -2.610463
-12.935351 5.366408 -2.546978
-12.866912 5.538297 -2.468611
-12.807464 5.710547 -2.390892
-12.752153 5.885859 -2.314491
-12.706039 6.068202 -2.245184
-12.659196 6.246343 -2.170956
-12.615049 6.428076 -2.095971
-12.580730 6.614675 -2.035930
-12.535974 6.793494 -1.958697
-12.496607 6.974220 -1.891672
-12.456656 7.165292 -1.830685
-12.404222 7.327529 -1.732481
-12.351640 7.500034 -1.645737
-12.302170 7.676115 -1.575567
-12.247335 7.851938 -1.498085
-12.189286 8.024956 -1.419834
-12.125331 8.189933 -1.329878
-12.058646 8.353571 -1.237129
-11.991036 8.523054 -1.154975
-11.918552 8.688209 -1.068647
-11.846118 8.856969 -0.989738
-11.770684 9.026590 -0.917640
-11.692677 9.194178 -0.843808
-11.609884 9.361198 -0.772401
-11.522028 9.522823 -0.694333
-11.431025 9.684093 -0.620489
-11.338737 9.849160 -0.555175
-11.236418 10.004159 -0.477669
-11.136061 10.163640 -0.409559
-11.032511 10.324951 -0.352576
-10.924860 10.483605 -0.292937
-10.815689 10.643042 -0.237944
-10.709022 10.804535 -0.197101
-10.591534 10.957903 -0.147792
-10.472418 11.107280 -0.098804
-10.352821 11.260931 -0.067329
-10.232642 11.411896 -0.049361
-10.101132 11.554756 -0.020959
-9.961240 11.689324 0.011360
-9.820431 11.806223 0.074968
-9.672257 11.921171 0.127021
-9.514199 12.013642 0.201995
-9.352894 12.116515 0.256562
-9.189269 12.223536 0.299552
-9.023963 12.333068 0.333488
-8.855128 12.435216 0.371880
-8.684319 12.536176 0.410063
-8.519428 12.644924 0.422555
-8.348306 12.744929 0.442880
-8.176201 12.836976 0.464147
-7.999985 12.930799 0.478617
-7.821285 13.001725 0.519644
-7.639982 13.070071 0.553655
-7.455712 13.133652 0.586384
-7.269323 13.194147 0.620104
-7.080662 13.246518 0.653888
-6.892295 13.310283 0.663566
-6.701627 13.365293 0.678733
-6.508385 13.410759 0.705186
-6.315509 13.447776 0.731734
-6.120983 13.482933 0.754108
-5.924904 13.517346 0.769131
-5.727457 13.546440 0.783948
-5.528856 13.569474 0.804896
-5.329742 13.587764 0.826019
-5.129029 13.609488 0.840344
-4.928880 13.636518 0.833906
-4.729228 13.665688 0.823012
-4.529776 13.694139 0.810503
-4.331375 13.726309 0.789356
-4.134867 13.761810 0.760577
-3.938486 13.795773 0.731222
-3.746210 13.833374 0.689467
-3.562075 13.874286 0.627367
-3.375182 13.911068 0.571820
-3.187042 13.943614 0.527628
-2.996551 13.973975 0.495560
-2.802089 13.991513 0.490687
-2.606280 13.999012 0.517644
-2.414909 13.999668 0.556792
-2.222482 13.997436 0.600556
-2.028491 13.991682 0.642697
-1.830854 13.991380 0.677308
-1.632900 13.992305 0.707151
-1.434311 14.000431 0.728792
-1.236527 14.017280 0.733782
-1.041736 14.042863 0.731238
-0.850352 14.063759 0.727072
-0.658222 14.069401 0.740562
-0.467669 14.056030 0.764957
-0.283063 14.037624 0.835042
-0.108835 14.001053 0.899385
0.081511 13.979675 0.949615
0.287352 13.968966 0.963013
0.482137 13.988404 0.949389
0.673473 14.015857 0.897688
0.850695 14.059285 0.833275
1.031227 14.094769 0.764224
1.204193 14.121113 0.709064
1.408122 14.128673 0.669037
1.594554 14.094833 0.687139
1.778795 14.055855 0.704675
1.973192 14.025075 0.704552
2.168352 13.998752 0.678673
2.363860 13.973990 0.652538
2.559705 13.948588 0.620701
2.755693 13.924724 0.585214
2.951617 13.896221 0.553124
3.146186 13.868048 0.517265
3.337772 13.842069 0.469925
3.531255 13.807039 0.435426
3.723822 13.768332 0.406986
3.915881 13.725313 0.381756
4.107567 13.677968 0.361857
4.297695 13.627196 0.342464
4.489089 13.571424 0.329129
4.677120 13.506365 0.331949
4.863399 13.437699 0.336333
5.051894 13.369804 0.331536
5.238208 13.300031 0.324439
5.427489 13.234298 0.305048
5.615328 13.173794 0.274189
5.803444 13.105696 0.249579
5.989773 13.035767 0.223129
6.174647 12.961087 0.200130
6.359965 12.892200 0.163783
6.543228 12.812725 0.138555
6.727951 12.735699 0.105277
6.907253 12.661668 0.058867
7.085507 12.584522 0.013298
7.266065 12.515193 -0.046016
7.438778 12.419088 -0.075535
7.612183 12.330309 -0.113824
7.782659 12.243046 -0.165108
7.952676 12.160986 -0.230413
8.119607 12.062473 -0.269112
8.284221 11.961336 -0.307297
8.446787 11.861233 -0.357145
8.611400 11.757131 -0.404149
8.768524 11.634694 -0.427444
8.925519 11.515817 -0.458934
9.085039 11.400239 -0.505729
9.243719 11.282875 -0.551728
9.400085 11.165651 -0.599761
9.560829 11.057760 -0.663199
9.714985 10.960215 -0.740323
9.867332 10.852736 -0.808189
10.016041 10.742210 -0.873209
10.160998 10.618487 -0.927284
10.301160 10.493028 -0.980385
10.436567 10.367776 -1.037403
10.573167 10.232183 -1.093160
10.698689 10.087674 -1.136321
10.823582 9.943639 -1.184208
10.946155 9.801331 -1.241607
11.067328 9.655067 -1.298138
11.184041 9.517019 -1.366014
11.302981 9.365664 -1.427967
11.409942 9.199508 -1.461798
11.519981 9.042634 -1.517262
11.625628 8.881358 -1.566684
11.729458 8.717561 -1.616668
11.832238 8.556747 -1.673796
11.935169 8.399871 -1.742353
12.035984 8.237582 -1.806852
12.130610 8.070782 -1.866669
12.225379 7.908082 -1.936617
12.317465 7.745514 -2.007632
12.404268 7.576606 -2.074416
12.490112 7.419827 -2.161213
12.568484 7.255118 -2.235933
12.649602 7.093816 -2.319770
12.707991 6.916366 -2.382128
12.766760 6.739870 -2.445811
12.820158 6.563553 -2.513157
12.867970 6.382731 -2.576137
12.907388 6.199838 -2.636100
12.945696 6.016507 -2.697938
12.975171 5.827627 -2.751214
13.006577 5.639657 -2.808537
13.023287 5.444989 -2.853269
13.045724 5.253069 -2.903220
13.067786 5.059996 -2.961685
13.114294 4.889822 -3.048935
13.155049 4.721082 -3.142227
13.195271 4.546995 -3.225658
13.228013 4.368570 -3.295067
13.257019 4.183000 -3.376130
13.257254 3.991953 -3.416269
13.283110 3.806612 -3.493359
13.325042 3.622227 -3.564202
13.389175 3.449332 -3.647049
13.440289 3.266634 -3.718321
13.498416 3.085340 -3.791318
13.569313 2.917242 -3.873104
13.652748 2.754343 -3.953265
13.733308 2.590516 -4.033129
13.813715 2.425604 -4.110118
13.894516 2.262649 -4.189075
13.969186 2.089005 -4.251716
14.039281 1.912854 -4.316656
14.112077 1.739165 -4.383593
14.175961 1.554894 -4.433975
14.253700 1.384469 -4.505025
14.321092 1.205267 -4.565572
14.397815 1.031477 -4.631268
14.479097 0.872614 -4.721151
14.542958 0.696403 -4.788351
14.609812 0.521355 -4.852262
14.672462 0.346770 -4.921427
14.731708 0.167525 -4.981436
14.788561 -0.000015 -5.066972
14.839797 -0.183811 -5.120305
14.882273 -0.365051 -5.177093
14.922554 -0.546309 -5.238719
14.959681 -0.723901 -5.307578
14.983616 -0.917700 -5.360164
15.006729 -1.112669 -5.387525
15.024301 -1.309367 -5.415450
15.049788 -1.508079 -5.466249
15.088302 -1.698894 -5.529289
15.138013 -1.882663 -5.605683
15.205415 -2.040743 -5.707868
15.266241 -2.211277 -5.795201
15.327555 -2.380043 -5.882537
15.388191 -2.551803 -5.962322
15.445197 -2.725639 -6.050003
15.477514 -2.909624 -6.108788
15.536249 -3.077744 -6.196296
15.573149 -3.258298 -6.263415
15.633257 -3.432892 -6.354164
15.646123 -3.620228 -6.406058
15.698395 -3.799123 -6.489718
15.758515 -3.967756 -6.569599
15.818957 -4.141711 -6.651296
15.870217 -4.322427 -6.721035
15.928448 -4.498830 -6.799623
16.026514 -4.652186 -6.896884
16.113667 -4.809570 -6.991427
16.193668 -4.973168 -7.077089
16.276470 -5.126888 -7.172014
16.355778 -5.282122 -7.266787
16.428740 -5.439370 -7.357802
16.489920 -5.612846 -7.439273
16.540119 -5.786875 -7.511051
16.587675 -5.962657 -7.582022
16.629332 -6.142346 -7.651086
16.667889 -6.324444 -7.716535
16.701210 -6.506896 -7.779559
16.732447 -6.685871 -7.851376
16.768187 -6.862971 -7.926137
16.777300 -7.062007 -7.971920
16.786055 -7.256285 -8.006919
16.798412 -7.449119 -8.058847
16.806675 -7.646821 -8.105452
16.814333 -7.843850 -8.148541
16.829357 -8.039842 -8.210895
16.866846 -8.221284 -8.290334
16.897884 -8.409119 -8.362570
16.942791 -8.586341 -8.448945
16.994986 -8.755197 -8.544435
17.050192 -8.917682 -8.645917
17.102976 -9.083766 -8.741233
17.148108 -9.256051 -8.832400
17.184959 -9.430673 -8.911631
17.227667 -9.601236 -8.998966
17.271175 -9.765087 -9.097726
17.289488 -9.957692 -9.157583
17.314882 -10.138850 -9.229430
17.336220 -10.326465 -9.295280
17.360680 -10.514754 -9.362320
17.410063 -10.694260 -9.438370
17.466616 -10.871116 -9.516643
17.520964 -11.050441 -9.591187
17.569092 -11.232734 -9.659374
17.632816 -11.409598 -9.731701
17.695408 -11.584567 -9.801943
17.758572 -11.761279 -9.873746
17.812777 -11.942963 -9.929102
17.872370 -12.123858 -9.987810
17.916092 -12.309251 -10.038456
17.966942 -12.497172 -10.087338
18.031689 -12.673223 -10.144791
18.093760 -12.854912 -10.196696
18.148577 -13.039121 -10.246256
18.209026 -13.225263 -10.289577
18.265261 -13.415073 -10.327722
18.334024 -13.594787 -10.380172
18.400482 -13.777646 -10.427583
18.470331 -13.959250 -10.475863
18.542484 -14.133121 -10.531908
18.615028 -14.306493 -10.592286
18.687208 -14.469602 -10.669446
18.751764 -14.650838 -10.716458
18.795021 -14.834197 -10.746401
18.831533 -15.026319 -10.764469
18.856890 -15.218829 -10.767031
18.871319 -15.413736 -10.764285
18.882624 -15.610922 -10.760303
18.887871 -15.810389 -10.755913
18.900105 -16.010208 -10.764400
18.909517 -16.210060 -10.783865
18.919420 -16.411127 -10.805429
18.927876 -16.611189 -10.828209
18.934553 -16.811764 -10.855284
18.944714 -17.005024 -10.904408
18.953079 -17.197121 -10.957555
18.955315 -17.390402 -10.999017
18.955318 -17.578289 -11.053809
18.954737 -17.766550 -11.106786
18.933638 -17.958988 -11.140153
18.910807 -18.154287 -11.140961
18.872778 -18.348448 -11.131936
18.847172 -18.542526 -11.136750
18.825216 -18.742098 -11.147514
18.798386 -18.938940 -11.145709
18.776651 -19.143818 -11.155650
18.782755 -19.343399 -11.170660
18.791908 -19.548103 -11.187325
18.810760 -19.750378 -11.200795
18.840954 -19.950144 -11.215196
18.878115 -20.151197 -11.228185
18.915222 -20.351023 -11.237131
18.974001 -20.548670 -11.241731
19.057518 -20.729036 -11.262209
19.134661 -20.917431 -11.270805
19.228067 -21.093983 -11.285682
19.316713 -21.276293 -11.289321
19.419643 -21.447342 -11.304196
19.508856 -21.624903 -11.295587
19.618965 -21.793478 -11.300045
19.722536 -21.963459 -11.291596
19.832724 -22.126453 -11.281105
19.957066 -22.285957 -11.276454
20.073532 -22.448416 -11.257522
20.199125 -22.601547 -11.241365
20.334536 -22.745817 -11.226055
20.477232 -22.888584 -11.210556
20.604750 -23.039366 -11.172220
20.751135 -23.173470 -11.150296
20.894802 -23.314951 -11.111753
21.052364 -23.435051 -11.101584
21.208353 -23.557398 -11.084020
21.367161 -23.676062 -11.066277
21.514696 -23.809223 -11.031079
21.657648 -23.940649 -10.987673
21.802544 -24.073860 -10.944807
21.947441 -24.207651 -10.908715
22.105394 -24.338503 -10.885834
22.270813 -24.452494 -10.884327
22.437124 -24.571827 -10.880794
22.607912 -24.683027 -10.894381
22.786261 -24.780085 -10.925270
22.966076 -24.869566 -10.957383
23.156183 -24.937553 -11.009176
23.342451 -25.003309 -11.057629
23.534046 -25.069265 -11.102584
23.726822 -25.095045 -11.178154
23.917929 -25.140844 -11.235247
24.124132 -25.162401 -11.289838
24.311852 -25.132164 -11.381717
24.491982 -25.084749 -11.460336
24.675478 -25.028845 -11.542863
24.844156 -24.953232 -11.622833
25.018562 -24.879837 -11.695695
25.172695 -24.775841 -11.789363
25.350878 -24.710257 -11.846434
25.512970 -24.616373 -11.929156
25.652243 -24.506880 -12.014570
25.819036 -24.422047 -12.093362
25.973988 -24.330706 -12.174460
26.127783 -24.240351 -12.260957
26.291298 -24.157646 -12.340520
26.465315 -24.086733 -12.410135
26.637772 -24.018414 -12.480397
26.811266 -23.942818 -12.557076
26.966940 -23.855700 -12.637464
27.110085 -23.741358 -12.730388
27.253870 -23.628500 -12.813957
27.406960 -23.531376 -12.901900
27.567097 -23.430189 -12.978280
27.725861 -23.334127 -13.051059
27.882807 -23.213583 -13.124931
28.009285 -23.078922 -13.192049
28.153442 -22.946114 -13.251641
28.279444 -22.802406 -13.303597
28.423513 -22.665394 -13.351721
28.552748 -22.514732 -13.386535
28.681896 -22.359301 -13.415701
28.780945 -22.186199 -13.441338
28.882275 -22.008171 -13.457669
28.998562 -21.845221 -13.465301
29.114700 -21.682468 -13.465894
29.198776 -21.500599 -13.455665
29.306795 -21.334213 -13.439354
29.375401 -21.141123 -13.413670
29.471460 -20.967876 -13.381589
29.545584 -20.781977 -13.346401
29.637976 -20.606220 -13.298137
29.719753 -20.428568 -13.245251
29.802439 -20.251926 -13.188626
29.856043 -20.066626 -13.128273
29.914865 -19.886232 -13.058337
29.974333 -19.707811 -12.982924
30.011702 -19.527943 -12.900526
30.017176 -19.342125 -12.826094
30.031008 -19.165306 -12.741996
30.026840 -18.979874 -12.650517
30.082453 -18.822424 -12.546823
30.098877 -18.644403 -12.448834
30.116838 -18.472923 -12.352567
30.129707 -18.296036 -12.250787
30.143148 -18.125505 -12.146917
30.156994 -17.957907 -12.033564
30.135992 -17.781595 -11.942497
30.135702 -17.613752 -11.830112
30.105663 -17.435202 -11.738814
30.082376 -17.259567 -11.641089
30.042652 -17.082947 -11.551278
END_8
