BEGIN_4
0.689687 4.619831 -2.916158
0.678068 4.621480 -2.916814
0.636936 4.627243 -2.919057
0.626061 4.628154 -2.919188
0.610226 4.630826 -2.919406
0.591218 4.633462 -2.919186
0.566771 4.637628 -2.918263
0.531161 4.643551 -2.916485
0.523095 4.644813 -2.916101
0.484122 4.651264 -2.914390
0.476375 4.651674 -2.913540
0.429102 4.656429 -2.912273
0.418009 4.656857 -2.912103
0.388723 4.658336 -2.912736
0.366888 4.660913 -2.911317
0.361540 4.655989 -2.906937
0.350849 4.661458 -2.909683
0.334729 4.662834 -2.909589
0.303359 4.665772 -2.906276
0.284516 4.667380 -2.903856
0.249203 4.670424 -2.899996
0.237206 4.671221 -2.898662
0.220354 4.671672 -2.897485
0.177927 4.672687 -2.892774
0.168521 4.674135 -2.892127
0.154460 4.673300 -2.891012
0.121235 4.671536 -2.889711
0.101094 4.670776 -2.889510
0.076953 4.668240 -2.888247
0.053490 4.666079 -2.887839
0.028496 4.663202 -2.886914
-0.016679 4.658636 -2.884403
-0.038450 4.656083 -2.883135
-0.068273 4.653225 -2.880794
-0.095935 4.650191 -2.878564
-0.127146 4.646173 -2.875229
-0.156793 4.642604 -2.872019
-0.204107 4.636267 -2.865226
-0.246612 4.630662 -2.861203
-0.272534 4.627223 -2.856670
-0.296401 4.623229 -2.852735
-0.339797 4.615899 -2.846036
-0.356791 4.613050 -2.843520
-0.395232 4.606757 -2.837967
-0.398329 4.600901 -2.832917
-0.414533 4.602521 -2.834184
-0.451772 4.593410 -2.829232
-0.474990 4.587921 -2.826403
-0.500057 4.582942 -2.820913
-0.531592 4.575478 -2.814807
-0.544850 4.571862 -2.814622
-0.559390 4.564739 -2.811962
-0.566758 4.564063 -2.812335
-0.588988 4.557184 -2.809607
-0.596083 4.554707 -2.808388
-0.638100 4.543282 -2.800300
-0.681614 4.529989 -2.790949
-0.697088 4.525510 -2.789172
-0.725179 4.514612 -2.786093
-0.731940 4.511927 -2.785774
-0.745601 4.506252 -2.784926
-0.784921 4.487621 -2.780584
-0.814976 4.473816 -2.778213
-0.854810 4.454313 -2.773314
-0.874214 4.444276 -2.769994
-0.894529 4.434113 -2.765733
-0.903921 4.429614 -2.764095
-0.927431 4.417881 -2.759158
-0.946559 4.409724 -2.753613
-0.989645 4.393462 -2.738199
-1.001389 4.389899 -2.734517
-1.011803 4.386589 -2.730128
-1.046826 4.374802 -2.715303
-1.069863 4.364500 -2.707288
-1.089187 4.355121 -2.700627
-1.122543 4.334766 -2.688898
-1.135440 4.326668 -2.684273
-1.143021 4.322216 -2.682502
-1.169698 4.303350 -2.678930
-1.196527 4.287933 -2.672660
-1.204345 4.281919 -2.670710
-1.236375 4.262346 -2.662648
-1.267674 4.244032 -2.654221
-1.299265 4.223746 -2.647541
-1.315564 4.214094 -2.642447
-1.339744 4.200315 -2.635737
-1.351289 4.192782 -2.633382
-1.361985 4.186142 -2.629704
-1.399449 4.165669 -2.615158
-1.439174 4.143196 -2.605737
-1.470424 4.125803 -2.597271
-1.506724 4.097980 -2.584026
-1.540753 4.077237 -2.576828
-1.562816 4.063813 -2.569826
-1.593216 4.044818 -2.560450
-1.616253 4.030935 -2.553114
-1.646487 4.013607 -2.543067
-1.674535 3.994474 -2.536527
-1.716184 3.965222 -2.526221
-1.737748 3.949350 -2.522210
-1.758056 3.933069 -2.512877
-1.774939 3.921291 -2.514705
-1.809740 3.891746 -2.505432
-1.815687 3.886729 -2.508150
-1.843256 3.859406 -2.503774
-1.859139 3.843127 -2.500934
-1.874874 3.824297 -2.499062
-1.886880 3.809724 -2.496905
-1.904081 3.787426 -2.493917
-1.928781 3.751210 -2.490912
-1.936342 3.740596 -2.491143
-1.955224 3.712248 -2.485177
-1.973377 3.687629 -2.486987
-1.988809 3.667558 -2.485379
-2.007253 3.643530 -2.481894
-2.016826 3.631425 -2.481558
-2.028777 3.617456 -2.480347
-2.047379 3.594484 -2.478011
-2.052405 3.588047 -2.477313
-2.064399 3.572717 -2.475473
-2.085792 3.544927 -2.472179
-2.106602 3.521063 -2.469472
-2.121957 3.503383 -2.467092
-2.135565 3.489818 -2.463958
-2.175213 3.452628 -2.456960
-2.185656 3.441652 -2.455165
-2.193293 3.433099 -2.454088
-2.235945 3.388845 -2.447529
-2.253774 3.369046 -2.444163
-2.268297 3.355297 -2.443192
-2.280285 3.341417 -2.441585
-2.298356 3.320814 -2.438854
-2.307350 3.311122 -2.437167
-2.319345 3.300168 -2.435970
-2.348322 3.268050 -2.431717
-2.352138 3.258960 -2.426998
-2.384788 3.232634 -2.423751
-2.407746 3.205227 -2.417728
-2.433815 3.168975 -2.413977
-2.445701 3.151382 -2.413264
-2.455036 3.140126 -2.411153
-2.484785 3.098315 -2.403823
-2.507885 3.066391 -2.399814
-2.524124 3.050493 -2.394824
-2.534338 3.040898 -2.393583
-2.551818 3.016462 -2.390993
-2.564473 2.997921 -2.390084
-2.581042 2.971480 -2.389965
-2.591048 2.951874 -2.389887
-2.602635 2.927113 -2.388171
-2.618833 2.900883 -2.390779
-2.629504 2.878812 -2.396326
-2.633098 2.857262 -2.394445
-2.636967 2.826228 -2.398044
-2.644891 2.791866 -2.403726
-2.646205 2.778486 -2.405421
-2.651388 2.752405 -2.412902
-2.652869 2.731717 -2.420257
-2.658275 2.709458 -2.424200
-2.659381 2.700465 -2.424685
-2.665154 2.685654 -2.426206
-2.668557 2.669198 -2.425921
-2.684855 2.642307 -2.423387
-2.705087 2.596177 -2.413609
-2.712199 2.572612 -2.409462
-2.714404 2.564867 -2.407152
-2.719572 2.546668 -2.400602
-2.731237 2.520735 -2.390868
-2.738221 2.509104 -2.387560
-2.753349 2.475883 -2.383317
-2.765477 2.438241 -2.381466
-2.774091 2.406210 -2.381629
-2.776700 2.389669 -2.379669
-2.791739 2.339666 -2.380100
-2.810561 2.282240 -2.387643
-2.815312 2.242822 -2.384371
-2.818240 2.231655 -2.385141
-2.824421 2.198982 -2.380944
-2.827343 2.186609 -2.379700
-2.836314 2.154183 -2.374372
-2.842239 2.133882 -2.370995
-2.851886 2.102988 -2.363233
-2.858448 2.076336 -2.357115
-2.864552 2.058231 -2.353421
-2.877218 2.017161 -2.342799
-2.881190 2.003860 -2.339320
-2.900794 1.942866 -2.322237
-2.903201 1.933856 -2.318808
-2.907377 1.918025 -2.313842
-2.922642 1.867787 -2.297612
-2.940009 1.804447 -2.277293
-2.942022 1.795040 -2.273360
-2.943390 1.788344 -2.271497
-2.957651 1.716560 -2.245928
-2.960654 1.688598 -2.236830
-2.964096 1.651981 -2.225125
-2.966311 1.618390 -2.214894
-2.966885 1.606342 -2.211272
-2.966816 1.596021 -2.207213
-2.970342 1.549466 -2.192264
-2.966398 1.542660 -2.183693
-2.970786 1.537627 -2.187689
-2.971209 1.522275 -2.181973
-2.972528 1.481815 -2.168260
-2.972101 1.460204 -2.162254
-2.970945 1.424671 -2.152890
-2.965380 1.383266 -2.143038
-2.964453 1.373188 -2.141386
-2.964080 1.367223 -2.139956
-2.958404 1.303968 -2.125159
-2.956762 1.287865 -2.121522
-2.953431 1.257274 -2.115019
-2.948744 1.216336 -2.106162
-2.947013 1.190148 -2.098858
-2.945482 1.161835 -2.091735
-2.942344 1.131948 -2.082929
-2.941495 1.117823 -2.079502
-2.940881 1.105710 -2.075327
-2.939782 1.072445 -2.065421
-2.939328 1.063015 -2.062554
-2.937597 1.047500 -2.057643
-2.936006 1.027593 -2.052236
-2.934762 1.006059 -2.045645
-2.933730 0.972814 -2.032298
-2.935290 0.911836 -2.016408
-2.933800 0.893395 -2.011475
-2.929340 0.853258 -1.998581
-2.925562 0.814579 -1.992412
-2.922673 0.794545 -1.987777
-2.916150 0.745096 -1.978854
-2.914491 0.729439 -1.975683
-2.913146 0.713367 -1.972549
-2.908242 0.705438 -1.967508
-2.909727 0.680965 -1.966091
-2.907484 0.651649 -1.956243
-2.910029 0.621528 -1.950783
-2.913825 0.585919 -1.939103
-2.915426 0.569722 -1.934027
-2.917801 0.543521 -1.926225
-2.921686 0.516547 -1.917753
-2.923065 0.506583 -1.913865
-2.925366 0.491112 -1.908021
-2.928404 0.472138 -1.901210
-2.930177 0.457578 -1.895991
-2.933835 0.431065 -1.886802
-2.938077 0.402123 -1.876880
-2.941194 0.384066 -1.871179
-2.945367 0.352543 -1.859526
-2.949916 0.304327 -1.844846
-2.950835 0.292203 -1.841505
-2.951464 0.284495 -1.839428
-2.955253 0.224140 -1.823687
-2.956328 0.208960 -1.820260
-2.957208 0.183937 -1.814459
-2.955339 0.175739 -1.810265
-2.959342 0.139839 -1.804096
-2.959232 0.124406 -1.800082
-2.960750 0.085891 -1.792050
-2.962313 0.050534 -1.784537
-2.960791 0.026743 -1.776258
-2.963792 0.012104 -1.775047
-2.964168 0.001628 -1.772118
-2.965738 -0.009596 -1.770592
-2.967205 -0.044929 -1.763951
-2.967596 -0.057105 -1.762219
-2.968207 -0.091535 -1.756324
-2.969577 -0.132517 -1.747221
-2.972476 -0.175183 -1.739906
-2.974432 -0.204385 -1.734006
-2.976452 -0.227826 -1.729192
-2.979689 -0.264065 -1.722408
-2.985643 -0.300549 -1.714414
-2.986195 -0.308517 -1.711782
-2.987862 -0.330063 -1.707465
-2.990680 -0.359257 -1.702921
-2.991600 -0.369475 -1.701642
-2.998415 -0.400487 -1.693218
-3.003029 -0.420656 -1.689292
-3.009289 -0.456428 -1.682404
-3.011772 -0.472627 -1.678202
-3.013368 -0.480497 -1.676839
-3.015039 -0.496758 -1.673148
-3.020531 -0.533498 -1.666880
-3.024046 -0.549037 -1.664440
-3.026026 -0.566730 -1.660694
-3.027449 -0.579982 -1.657843
-3.031787 -0.610197 -1.653956
-3.033770 -0.626914 -1.652959
-3.034448 -0.640579 -1.650945
-3.035879 -0.665694 -1.647365
-3.037886 -0.692052 -1.645366
-3.035947 -0.713907 -1.644607
-3.035769 -0.727655 -1.643425
-3.035545 -0.740930 -1.642662
-3.034445 -0.749358 -1.641193
-3.034292 -0.761485 -1.641174
-3.032408 -0.781113 -1.640231
-3.031290 -0.795380 -1.639684
-3.028813 -0.821455 -1.637652
-3.025214 -0.869543 -1.632544
-3.025086 -0.886102 -1.632497
-3.020303 -0.961881 -1.628839
-3.013825 -1.014186 -1.623019
-3.014439 -1.036039 -1.620175
-3.015298 -1.058719 -1.618216
-3.019554 -1.096611 -1.610838
-3.022422 -1.106584 -1.609160
-3.025988 -1.130518 -1.604350
-3.030372 -1.149597 -1.599321
-3.031934 -1.164323 -1.597318
-3.033420 -1.189562 -1.593855
-3.036540 -1.218879 -1.587979
-3.037167 -1.242111 -1.586555
-3.036001 -1.287930 -1.577696
-3.030843 -1.336483 -1.572456
-3.026253 -1.381757 -1.564905
-3.012566 -1.448895 -1.565084
-3.012677 -1.518668 -1.566507
-3.010858 -1.568017 -1.574498
-3.015841 -1.588993 -1.579634
-3.009320 -1.663489 -1.609940
-3.015126 -1.717425 -1.648526
-3.016164 -1.745017 -1.667532
-3.017859 -1.770675 -1.683319
-3.011967 -1.777938 -1.686981
-3.014422 -1.788344 -1.693880
-3.014574 -1.809899 -1.705521
-3.012513 -1.824622 -1.713632
-3.007695 -1.831542 -1.715574
-3.008211 -1.864391 -1.732042
-3.007821 -1.874021 -1.736147
-3.006875 -1.902223 -1.748486
-3.003055 -1.906370 -1.746869
-3.005584 -1.918313 -1.754017
-3.003454 -1.945328 -1.763578
-3.004029 -1.957931 -1.768983
-3.001845 -1.985808 -1.784818
-2.995843 -2.012640 -1.801543
-2.993869 -2.022952 -1.809504
-2.992155 -2.028952 -1.813391
-2.987787 -2.056352 -1.829349
-2.984404 -2.072441 -1.836630
-2.981263 -2.080701 -1.840831
-2.976722 -2.096923 -1.851131
-2.974450 -2.108941 -1.859242
-2.970304 -2.118498 -1.863780
-2.960281 -2.145700 -1.884886
-2.955805 -2.155092 -1.895819
-2.953030 -2.164051 -1.904329
-2.943091 -2.193931 -1.928484
-2.931503 -2.234950 -1.951106
-2.926964 -2.279614 -1.972326
-2.924877 -2.289937 -1.976569
-2.916283 -2.319185 -1.991414
-2.909784 -2.336472 -2.001622
-2.908107 -2.342983 -2.005850
-2.890734 -2.391809 -2.030709
-2.871216 -2.442614 -2.059850
-2.868553 -2.447477 -2.063951
-2.855698 -2.481849 -2.082894
-2.847731 -2.503391 -2.092479
-2.837870 -2.533029 -2.108347
-2.825856 -2.560187 -2.123977
-2.817103 -2.579094 -2.134498
-2.807456 -2.600183 -2.146328
-2.798415 -2.620841 -2.157747
-2.792749 -2.632033 -2.164486
-2.786384 -2.647545 -2.173331
-2.783242 -2.658442 -2.178620
-2.775327 -2.686887 -2.191586
-2.768695 -2.709735 -2.201934
-2.766845 -2.716884 -2.205664
-2.758055 -2.745523 -2.220412
-2.750575 -2.762850 -2.229749
-2.741555 -2.798191 -2.244943
-2.730512 -2.833777 -2.260919
-2.717390 -2.872859 -2.278610
-2.707119 -2.918766 -2.300400
-2.699367 -2.943428 -2.307896
-2.698583 -2.949367 -2.313265
-2.694456 -2.960857 -2.318238
-2.693100 -2.966800 -2.322783
-2.684375 -2.988984 -2.334399
-2.675685 -3.011148 -2.346910
-2.668782 -3.032326 -2.357042
-2.665421 -3.043758 -2.362884
-2.660666 -3.059355 -2.370077
-2.656017 -3.077572 -2.379668
-2.653274 -3.085724 -2.381797
-2.645363 -3.109746 -2.395773
-2.639171 -3.124464 -2.403003
-2.623016 -3.166625 -2.427020
-2.618313 -3.175538 -2.431939
-2.614388 -3.182818 -2.435793
-2.590274 -3.232312 -2.467788
-2.585755 -3.241853 -2.473497
-2.579429 -3.256033 -2.482998
-2.570341 -3.275654 -2.495633
-2.559976 -3.292904 -2.505945
-2.556309 -3.299337 -2.510375
-2.554065 -3.303314 -2.514214
-2.544871 -3.315625 -2.525444
-2.536557 -3.331711 -2.535959
-2.519220 -3.362454 -2.553933
-2.506825 -3.386428 -2.573718
-2.496860 -3.403077 -2.586681
-2.491727 -3.411119 -2.592834
-2.486885 -3.419574 -2.599949
-2.471966 -3.441480 -2.617715
-2.459891 -3.463356 -2.634325
-2.450615 -3.479416 -2.646020
-2.439212 -3.500603 -2.661087
-2.423304 -3.526679 -2.679896
-2.412559 -3.551491 -2.700232
-2.401459 -3.570775 -2.715990
-2.395429 -3.580343 -2.722682
-2.383327 -3.600752 -2.741586
-2.377424 -3.608444 -2.747888
-2.368252 -3.622870 -2.762137
-2.364136 -3.629081 -2.768353
-2.357617 -3.639677 -2.777362
-2.354223 -3.645547 -2.784166
-2.343899 -3.658959 -2.795940
-2.340285 -3.663248 -2.799519
-2.330067 -3.677553 -2.814436
-2.314992 -3.697256 -2.833979
-2.304292 -3.711582 -2.850572
-2.290745 -3.727503 -2.866060
-2.271195 -3.756878 -2.897868
-2.253816 -3.775930 -2.922956
-2.242705 -3.793278 -2.936254
-2.232599 -3.806789 -2.950631
-2.216516 -3.826963 -2.972865
-2.207608 -3.836513 -2.984537
-2.200184 -3.844327 -2.994842
-2.189897 -3.860327 -3.011127
-2.185308 -3.866518 -3.017270
-2.168563 -3.880233 -3.034930
-2.157937 -3.897882 -3.055878
-2.144805 -3.913959 -3.075538
-2.135406 -3.917559 -3.076530
-2.127964 -3.929815 -3.097035
-2.119530 -3.940065 -3.109007
-2.115483 -3.944359 -3.114604
-2.102245 -3.958410 -3.133246
-2.091801 -3.967506 -3.146597
-2.081936 -3.980531 -3.158932
-2.070973 -3.993767 -3.172206
-2.043538 -4.026320 -3.202982
-2.036889 -4.033620 -3.209824
-2.011665 -4.059928 -3.238588
-1.989634 -4.084235 -3.258472
-1.981457 -4.092778 -3.266530
-1.970568 -4.104386 -3.274958
-1.959315 -4.116928 -3.285914
-1.943865 -4.133979 -3.298642
-1.923963 -4.153271 -3.312687
-1.894803 -4.178490 -3.336422
-1.857625 -4.203471 -3.367503
-1.832344 -4.221043 -3.386838
-1.813958 -4.232334 -3.400958
-1.793713 -4.245086 -3.415567
-1.779486 -4.253448 -3.423799
-1.762514 -4.263418 -3.435150
-1.750867 -4.270851 -3.444000
-1.732300 -4.280468 -3.455439
-1.709999 -4.291215 -3.469239
-1.697706 -4.297992 -3.477824
-1.689998 -4.302939 -3.483312
-1.654339 -4.323005 -3.505372
-1.627541 -4.336426 -3.519094
-1.599953 -4.353677 -3.533236
-1.592643 -4.358053 -3.536960
-1.580963 -4.364417 -3.542512
-1.548944 -4.381086 -3.561364
-1.528817 -4.391198 -3.572473
-1.507118 -4.402266 -3.584809
-1.489624 -4.409339 -3.594248
-1.467633 -4.417549 -3.604407
-1.445977 -4.426950 -3.616841
-1.420213 -4.439350 -3.630394
-1.405419 -4.445320 -3.637938
-1.396946 -4.448530 -3.640664
-1.373510 -4.458199 -3.651019
-1.358652 -4.464343 -3.657857
-1.349922 -4.468137 -3.661922
-1.326141 -4.478356 -3.673546
-1.306292 -4.485433 -3.680173
-1.268145 -4.500191 -3.695671
-1.235163 -4.511905 -3.707408
-1.191858 -4.530868 -3.721596
-1.183415 -4.533861 -3.720482
-1.177255 -4.536990 -3.725350
-1.134481 -4.553766 -3.737739
-1.112201 -4.562721 -3.744596
-1.096497 -4.568515 -3.747861
-1.071955 -4.577525 -3.754210
-1.059109 -4.581752 -3.756516
-1.047149 -4.585497 -3.759526
-1.012598 -4.595031 -3.766827
-0.993077 -4.600996 -3.771185
-0.948279 -4.615780 -3.779036
-0.937923 -4.618217 -3.775173
-0.930947 -4.621163 -3.780111
-0.892605 -4.634968 -3.785704
-0.871865 -4.640747 -3.787971
-0.855434 -4.642829 -3.790235
-0.809233 -4.649275 -3.796186
-0.798068 -4.650190 -3.797537
-0.787708 -4.650026 -3.798877
-0.732368 -4.651332 -3.806893
-0.693835 -4.651342 -3.808984
-0.650455 -4.654340 -3.812034
-0.625759 -4.656311 -3.813341
-0.555027 -4.664627 -3.815069
-0.549072 -4.665329 -3.815121
-0.541533 -4.666556 -3.815721
-0.499545 -4.676262 -3.813916
-0.473961 -4.681820 -3.811479
-0.440590 -4.684814 -3.809804
-0.419790 -4.687484 -3.808323
-0.404786 -4.687120 -3.807614
-0.365477 -4.686441 -3.806333
-0.345845 -4.689351 -3.805094
-0.318107 -4.692842 -3.802245
-0.307191 -4.693748 -3.801208
-0.301068 -4.693882 -3.799526
-0.260442 -4.695858 -3.795057
-0.242401 -4.695183 -3.794389
-0.215065 -4.692869 -3.792228
-0.173238 -4.689622 -3.790205
-0.149290 -4.688568 -3.788945
-0.107362 -4.686953 -3.786497
-0.082490 -4.686126 -3.785450
-0.042935 -4.682086 -3.784878
-0.035119 -4.683314 -3.782755
-0.002492 -4.682806 -3.779267
0.014271 -4.680042 -3.779857
0.039053 -4.674719 -3.779189
0.061119 -4.670191 -3.779522
0.074617 -4.666282 -3.778723
0.101284 -4.658123 -3.779190
0.140504 -4.646653 -3.777948
0.186180 -4.639853 -3.775820
0.204137 -4.640920 -3.773140
0.228054 -4.640400 -3.770007
0.259744 -4.636115 -3.767453
0.270996 -4.634320 -3.765713
0.316894 -4.621342 -3.761129
0.329037 -4.617689 -3.761028
0.343052 -4.613215 -3.759650
0.382944 -4.600187 -3.755406
0.399034 -4.594720 -3.753585
0.412703 -4.590139 -3.752212
0.441086 -4.578036 -3.748216
0.452171 -4.574502 -3.747570
0.488691 -4.565495 -3.741726
0.511404 -4.558386 -3.735296
0.518968 -4.556452 -3.736573
0.569745 -4.539134 -3.729074
0.597214 -4.531412 -3.723922
0.620184 -4.524984 -3.719569
0.652667 -4.513456 -3.714015
0.690006 -4.501112 -3.707245
0.704943 -4.495373 -3.704749
0.714305 -4.491500 -3.703365
0.742224 -4.480056 -3.697964
0.763451 -4.470647 -3.693789
0.773600 -4.465772 -3.691642
0.805595 -4.448612 -3.688492
0.826610 -4.435948 -3.683422
0.850994 -4.423906 -3.678565
0.868101 -4.416216 -3.674790
0.884436 -4.409419 -3.670905
0.908959 -4.398210 -3.663733
0.919356 -4.393851 -3.662068
0.926409 -4.390721 -3.659908
0.938517 -4.383812 -3.657221
0.951446 -4.374489 -3.654039
0.965245 -4.365129 -3.651320
0.979034 -4.355570 -3.648364
1.002683 -4.340326 -3.642891
1.021513 -4.329371 -3.638520
1.037918 -4.319166 -3.633567
1.053163 -4.311125 -3.629816
1.083538 -4.294224 -3.620604
1.094470 -4.288501 -3.618194
1.125865 -4.270462 -3.609299
1.134476 -4.265086 -3.606025
1.144700 -4.259604 -3.603346
1.169205 -4.243652 -3.594488
1.194718 -4.225546 -3.585516
1.203610 -4.219013 -3.582041
1.238972 -4.195096 -3.569170
1.243779 -4.191843 -3.567729
1.248786 -4.188219 -3.565916
1.282361 -4.160706 -3.547663
1.287279 -4.159294 -3.549889
1.316133 -4.135223 -3.536427
1.336844 -4.116792 -3.526819
1.344190 -4.108984 -3.521702
1.364308 -4.092338 -3.512359
1.390090 -4.070536 -3.499487
1.418985 -4.043619 -3.482033
1.426549 -4.036494 -3.478687
1.461902 -3.997983 -3.453325
1.470239 -3.991677 -3.453033
1.501436 -3.957517 -3.433807
1.516415 -3.940138 -3.424110
1.536873 -3.916447 -3.411705
1.550362 -3.899204 -3.402586
1.569468 -3.876648 -3.390842
1.583884 -3.857353 -3.381686
1.607294 -3.825722 -3.366726
1.620741 -3.806303 -3.358057
1.650942 -3.761397 -3.338326
1.659768 -3.747773 -3.332439
1.671492 -3.729653 -3.323649
1.692747 -3.698108 -3.309535
1.715664 -3.663929 -3.293066
1.728995 -3.645323 -3.283441
1.745786 -3.625136 -3.269242
1.755366 -3.613927 -3.262566
1.769500 -3.595645 -3.251418
1.795605 -3.562533 -3.229746
1.801191 -3.556337 -3.226096
1.828327 -3.523681 -3.204308
1.842302 -3.505731 -3.193204
1.852050 -3.490896 -3.184843
1.871830 -3.464153 -3.169831
1.879791 -3.453562 -3.163358
1.893266 -3.434689 -3.153471
1.904894 -3.415571 -3.143625
1.911090 -3.405491 -3.138509
1.929523 -3.378837 -3.124681
1.944925 -3.355404 -3.111229
1.960576 -3.333246 -3.099964
1.974937 -3.311096 -3.086291
1.984230 -3.298528 -3.079787
1.990121 -3.288574 -3.074065
1.998287 -3.275255 -3.067271
2.013519 -3.250381 -3.054477
2.020386 -3.239833 -3.049048
2.028449 -3.226659 -3.042762
2.033902 -3.219433 -3.039020
2.044768 -3.197959 -3.028280
2.059155 -3.173264 -3.016873
2.071050 -3.150225 -3.008359
2.079345 -3.135204 -3.001891
2.091833 -3.110462 -2.992357
2.101460 -3.091549 -2.985120
2.113613 -3.068424 -2.975946
2.116132 -3.062885 -2.973521
2.126445 -3.042793 -2.965555
2.136851 -3.014763 -2.951096
2.152421 -2.992491 -2.944988
2.165200 -2.967169 -2.934177
2.170252 -2.958207 -2.931050
2.189743 -2.918285 -2.913151
2.211010 -2.877250 -2.894282
2.213820 -2.870986 -2.891311
2.219744 -2.857703 -2.885955
2.237124 -2.819430 -2.870056
2.243079 -2.807276 -2.864978
2.251040 -2.788440 -2.857554
2.260875 -2.767575 -2.848783
2.278023 -2.733395 -2.833544
2.280728 -2.726951 -2.830335
2.295194 -2.695227 -2.817750
2.311098 -2.659058 -2.800870
2.315469 -2.649423 -2.796388
2.321000 -2.639234 -2.790640
2.340105 -2.596309 -2.770614
2.348659 -2.576439 -2.761500
2.357773 -2.553519 -2.750712
2.362748 -2.538383 -2.744315
2.375832 -2.497379 -2.725881
2.375090 -2.486199 -2.716567
2.386921 -2.460390 -2.708203
2.393620 -2.438251 -2.697422
2.402678 -2.406612 -2.681877
2.413113 -2.374547 -2.663106
2.422767 -2.350567 -2.647909
2.441570 -2.304701 -2.615423
2.460294 -2.260683 -2.581579
2.471529 -2.232700 -2.560681
2.474394 -2.226336 -2.556286
2.484581 -2.196866 -2.535239
2.489451 -2.180753 -2.523932
2.495414 -2.158156 -2.505755
2.500428 -2.140372 -2.493263
2.506482 -2.107385 -2.473345
2.515332 -2.075124 -2.459925
2.512293 -2.059932 -2.452313
2.517770 -2.048439 -2.447970
2.532494 -2.003083 -2.430976
2.537504 -1.984042 -2.424404
2.543486 -1.959745 -2.416275
2.549355 -1.929927 -2.408489
2.557717 -1.890448 -2.402509
2.573016 -1.841525 -2.393594
2.576789 -1.822732 -2.391628
2.584010 -1.785063 -2.384602
2.587638 -1.775564 -2.383039
2.596237 -1.747013 -2.378778
2.601241 -1.728450 -2.376352
2.608954 -1.694696 -2.371454
2.623624 -1.629022 -2.364536
2.626712 -1.617037 -2.363537
2.636646 -1.572172 -2.366557
2.645060 -1.545558 -2.367449
2.651662 -1.515605 -2.368016
2.657190 -1.483161 -2.370296
2.664410 -1.451907 -2.372293
2.669835 -1.419307 -2.372674
2.677558 -1.390027 -2.371038
2.682169 -1.367908 -2.369066
2.685100 -1.360497 -2.368534
2.693488 -1.321426 -2.364679
2.702848 -1.284496 -2.362071
2.712226 -1.249668 -2.358206
2.715422 -1.233685 -2.357051
2.721101 -1.213215 -2.355641
2.731041 -1.173649 -2.354415
2.734090 -1.144890 -2.352743
2.745615 -1.118570 -2.355461
2.752019 -1.089818 -2.354202
2.757044 -1.068283 -2.353359
2.771075 -1.021135 -2.356001
2.777205 -0.988649 -2.357445
2.781976 -0.967501 -2.357012
2.788015 -0.940602 -2.357427
2.791452 -0.912461 -2.355620
2.801175 -0.879561 -2.357828
2.805814 -0.852508 -2.359583
2.810671 -0.821113 -2.361696
2.812652 -0.797846 -2.361417
2.815892 -0.789484 -2.363096
2.819110 -0.772259 -2.363337
2.824436 -0.745988 -2.363024
2.830853 -0.717786 -2.362515
2.835506 -0.701525 -2.361944
2.840448 -0.683273 -2.360813
2.840769 -0.671595 -2.357190
2.854054 -0.641136 -2.359315
2.866578 -0.599552 -2.353447
2.869062 -0.592093 -2.352287
2.872542 -0.580216 -2.351646
2.889637 -0.531044 -2.348654
2.898623 -0.502883 -2.348088
2.903873 -0.483761 -2.346853
2.909422 -0.469694 -2.346832
2.918976 -0.443924 -2.346798
2.925231 -0.426906 -2.346199
2.927875 -0.414768 -2.345946
2.939461 -0.381083 -2.347910
2.947504 -0.355319 -2.349781
2.952169 -0.341049 -2.350968
2.959392 -0.320547 -2.351408
2.968954 -0.292481 -2.353541
2.972886 -0.277759 -2.354816
2.975317 -0.268986 -2.355565
2.985223 -0.237300 -2.359310
2.992100 -0.210575 -2.363335
2.995403 -0.200333 -2.365507
3.012363 -0.139118 -2.376869
3.030595 -0.075334 -2.389507
3.037511 -0.047927 -2.390964
3.045256 -0.010460 -2.396832
3.046604 -0.002152 -2.397124
3.048683 0.011174 -2.397822
3.060753 0.075210 -2.403140
3.064150 0.097448 -2.405065
3.069368 0.129602 -2.406630
3.070889 0.140946 -2.407066
3.075146 0.172586 -2.407787
3.078117 0.191829 -2.408289
3.079803 0.204350 -2.407346
3.082508 0.222995 -2.407441
3.085330 0.246630 -2.409610
3.088579 0.269116 -2.409742
3.091381 0.298370 -2.409359
3.094945 0.317033 -2.408908
3.098773 0.343402 -2.408148
3.100877 0.358096 -2.407336
3.105626 0.389931 -2.404432
3.108318 0.416138 -2.402051
3.113573 0.450965 -2.396316
3.115415 0.479933 -2.392084
3.119771 0.535836 -2.385705
3.120497 0.584413 -2.383312
3.119874 0.620496 -2.382726
3.119072 0.635608 -2.382593
3.118467 0.675074 -2.382968
3.118080 0.713489 -2.381634
3.116858 0.727373 -2.380991
3.115167 0.766381 -2.379612
3.114028 0.804800 -2.377897
3.113293 0.818389 -2.376984
3.111514 0.871218 -2.375770
3.109644 0.885808 -2.375326
3.109905 0.903847 -2.374588
3.107820 0.932031 -2.372075
3.104704 0.985938 -2.370332
3.103243 0.995644 -2.370010
3.102873 1.026531 -2.368184
3.099180 1.050199 -2.364857
3.098038 1.067919 -2.361832
3.091096 1.075873 -2.361471
3.090544 1.122121 -2.357000
3.085305 1.172374 -2.352050
3.081089 1.234060 -2.354605
3.073940 1.268964 -2.357529
3.066073 1.299918 -2.361367
3.074126 1.314894 -2.358807
3.075512 1.361587 -2.357857
3.071172 1.410232 -2.364008
3.071044 1.432635 -2.366381
3.071888 1.455401 -2.368265
3.070513 1.499095 -2.371805
3.061879 1.562098 -2.375397
3.055650 1.616682 -2.377272
3.051641 1.665403 -2.377596
3.048611 1.688169 -2.377162
3.039706 1.758164 -2.378656
3.031196 1.787896 -2.378644
3.032952 1.806508 -2.380297
3.025969 1.858945 -2.383254
3.021209 1.889603 -2.385740
3.016412 1.924078 -2.389071
3.013398 1.937870 -2.390408
3.011299 1.952948 -2.392190
3.004370 1.987659 -2.395969
2.997233 2.022685 -2.399591
2.992038 2.052883 -2.402482
2.986907 2.081184 -2.405811
2.984037 2.091931 -2.407987
2.981778 2.103106 -2.409131
2.973835 2.133515 -2.411504
2.967097 2.169304 -2.412753
2.956407 2.214254 -2.415651
2.942938 2.267006 -2.421295
2.930742 2.312152 -2.426204
2.915294 2.368883 -2.431937
2.908580 2.390488 -2.433507
2.894245 2.425984 -2.436891
2.882958 2.469036 -2.436753
2.865939 2.526716 -2.441498
2.855222 2.567803 -2.447071
2.843039 2.601186 -2.450434
2.840578 2.617821 -2.450758
2.830803 2.655419 -2.453212
2.826072 2.667591 -2.454248
2.820479 2.685864 -2.457103
2.807414 2.722266 -2.461404
2.801024 2.740032 -2.464458
2.793285 2.760593 -2.465686
2.789579 2.772837 -2.467331
2.780223 2.801126 -2.469867
2.773525 2.822348 -2.471948
2.768716 2.836380 -2.473900
2.763133 2.849015 -2.475043
2.752062 2.877482 -2.479767
2.744362 2.894611 -2.482432
2.738549 2.908158 -2.486389
2.713663 2.954089 -2.497390
2.701936 2.975220 -2.502611
2.681260 3.007910 -2.511246
2.673512 3.019281 -2.514533
2.656868 3.045515 -2.523035
2.634276 3.086364 -2.534463
2.595790 3.146636 -2.550735
2.587376 3.159974 -2.554487
2.565239 3.193107 -2.565195
2.551237 3.212177 -2.572648
2.541449 3.225480 -2.577631
2.534364 3.234159 -2.580230
2.515058 3.262043 -2.590409
2.502692 3.280056 -2.595549
2.496870 3.289127 -2.598527
2.477797 3.316837 -2.606552
2.459473 3.343776 -2.614169
2.441967 3.370769 -2.620134
2.437332 3.377112 -2.621838
2.426294 3.392793 -2.626592
2.413791 3.411997 -2.629054
2.398417 3.434542 -2.634615
2.377034 3.462111 -2.642456
2.373679 3.467852 -2.644725
2.339595 3.506018 -2.661353
2.320791 3.533427 -2.666827
2.315291 3.541202 -2.668840
2.296605 3.565714 -2.676323
2.278575 3.586785 -2.681782
2.273269 3.595340 -2.683638
2.260153 3.612873 -2.685610
2.243870 3.637602 -2.690178
2.207860 3.683077 -2.700487
2.202327 3.689528 -2.702055
2.153517 3.743968 -2.718569
2.114909 3.784583 -2.731744
2.088882 3.810003 -2.740811
2.073308 3.829045 -2.743887
2.049375 3.857578 -2.749871
2.034539 3.874006 -2.752539
2.003162 3.906140 -2.760694
1.987903 3.919471 -2.765068
1.982669 3.924284 -2.766803
1.976485 3.930703 -2.769276
1.949234 3.953807 -2.777981
1.920974 3.976979 -2.787947
1.914370 3.981961 -2.790202
1.896313 3.996144 -2.797225
1.875656 4.012252 -2.804832
1.868995 4.017764 -2.807314
1.832344 4.046453 -2.819155
1.817086 4.058301 -2.824185
1.797516 4.073652 -2.829649
1.779887 4.086661 -2.834186
1.746105 4.111271 -2.843861
1.732436 4.118210 -2.844102
1.719832 4.129657 -2.851435
1.682465 4.152953 -2.863112
1.670164 4.160248 -2.866509
1.646370 4.175134 -2.872692
1.630825 4.184986 -2.875799
1.601124 4.205897 -2.882935
1.578868 4.220026 -2.886837
1.566110 4.229199 -2.888794
1.509589 4.270308 -2.895220
1.467706 4.301000 -2.899224
1.445167 4.316198 -2.901507
1.411158 4.337317 -2.903252
1.375364 4.361527 -2.907575
1.347531 4.378994 -2.909405
1.333041 4.388236 -2.910508
1.301343 4.406781 -2.912165
1.291066 4.412024 -2.912456
1.267670 4.425821 -2.913434
1.253832 4.430621 -2.909982
1.250686 4.436112 -2.914195
1.221904 4.450338 -2.914887
1.196147 4.462618 -2.916626
1.179048 4.470382 -2.917213
1.160353 4.478335 -2.917774
1.147356 4.483876 -2.918005
1.115456 4.497651 -2.918953
1.093429 4.507354 -2.918720
1.076821 4.513607 -2.917695
1.044784 4.526891 -2.916629
1.024737 4.535084 -2.916855
1.006100 4.541308 -2.915975
0.991364 4.547215 -2.915338
0.972545 4.554260 -2.913811
0.949314 4.562514 -2.912787
0.924446 4.570056 -2.912212
0.912061 4.573559 -2.911731
0.882386 4.581013 -2.911824
0.857411 4.587189 -2.912176
0.824348 4.594262 -2.912400
0.813558 4.596785 -2.912783
0.805089 4.598569 -2.912818
0.784966 4.603136 -2.913338
0.765812 4.606037 -2.913271
0.730866 4.612352 -2.914466
0.711120 4.615921 -2.915155
END_4
