BEGIN_3
-3.539163 -0.549292 -4.194012
-3.551263 -0.753217 -4.184961
-3.560390 -0.971254 -4.174500
-3.565926 -1.200681 -4.162799
-3.566464 -1.438874 -4.152898
-3.562152 -1.682945 -4.142031
-3.552359 -1.930149 -4.130314
-3.535635 -2.177818 -4.120729
-3.512130 -2.423105 -4.110488
-3.480922 -2.663299 -4.100652
-3.441349 -2.895636 -4.091331
-3.392743 -3.117373 -4.082644
-3.334446 -3.325760 -4.074732
-3.265785 -3.518049 -4.067749
-3.186065 -3.691491 -4.061862
-3.094654 -3.843298 -4.057278
-2.972161 -3.996444 -4.053562
-2.830574 -4.133453 -4.051167
-2.672145 -4.254823 -4.049939
-2.499097 -4.361081 -4.049706
-2.313647 -4.452752 -4.050274
-2.117985 -4.530357 -4.051434
-1.914314 -4.594387 -4.052941
-1.704835 -4.645365 -4.054564
-1.491751 -4.683805 -4.056052
-1.277271 -4.710411 -4.056187
-1.063537 -4.725089 -4.057691
-0.852787 -4.728945 -4.057456
-0.647195 -4.722281 -4.056339
-0.466352 -4.707733 -4.053549
-0.275882 -4.683657 -4.051713
-0.077731 -4.650837 -4.046755
0.126089 -4.608669 -4.041503
0.333591 -4.557131 -4.035906
0.542828 -4.496617 -4.028015
0.751797 -4.426909 -4.018872
0.958542 -4.348197 -4.007616
1.160977 -4.259853 -3.997341
1.357203 -4.162469 -3.985302
1.545195 -4.055824 -3.972683
1.722953 -3.939899 -3.959690
1.888482 -3.814670 -3.946519
2.039775 -3.680103 -3.933344
2.174809 -3.536176 -3.920315
2.295862 -3.377947 -3.907073
2.406839 -3.201981 -3.893116
2.508148 -3.010439 -3.878384
2.600233 -2.805444 -3.862926
2.683537 -2.589119 -3.846936
2.758491 -2.363592 -3.830771
2.825511 -2.130995 -3.814963
2.885009 -1.893472 -3.800218
2.937375 -1.653183 -3.787360
2.982985 -1.412298 -3.777281
3.022211 -1.172998 -3.770838
3.055452 -0.937513 -3.768745
3.083018 -0.707978 -3.771432
3.105275 -0.486629 -3.779005
3.122659 -0.275636 -3.791204
3.136301 -0.067297 -3.808179
3.146559 0.146324 -3.830093
3.152700 0.363442 -3.856266
3.153983 0.582297 -3.885833
3.149665 0.801144 -3.917855
3.138996 1.018250 -3.951402
3.121215 1.231889 -3.985610
3.095543 1.440335 -4.019731
3.061213 1.641844 -4.053143
3.017425 1.834669 -4.085350
2.963385 2.017051 -4.115973
2.898295 2.187215 -4.144743
2.821354 2.343376 -4.171464
2.731768 2.483742 -4.196011
2.628767 2.606517 -4.218310
2.499160 2.719844 -4.240282
2.347805 2.817524 -4.260930
2.177585 2.900436 -4.280319
1.991264 2.969514 -4.298483
1.791605 3.025701 -4.315424
1.581364 3.069930 -4.331116
1.363297 3.103132 -4.345497
1.140154 3.126238 -4.358496
0.914692 3.140183 -4.370029
0.689623 3.146232 -4.379084
0.467804 3.144267 -4.388412
0.251831 3.136564 -4.394239
0.044568 3.123013 -4.399412
-0.151273 3.104520 -4.404023
-0.343363 3.080292 -4.406371
-0.539934 3.047980 -4.407453
-0.739465 3.007934 -4.406285
-0.940288 2.959568 -4.404765
-1.140849 2.902941 -4.402941
-1.339747 2.838695 -4.398984
-1.535365 2.766551 -4.393950
-1.726157 2.686529 -4.387959
-1.910574 2.598652 -4.381144
-2.087061 2.502929 -4.373642
-2.254066 2.399382 -4.365585
-2.410030 2.288015 -4.357090
-2.553396 2.168842 -4.348268
-2.682699 2.041781 -4.339194
-2.799125 1.904926 -4.331048
-2.905204 1.757151 -4.322283
-3.001522 1.599220 -4.312968
-3.088500 1.432051 -4.303169
-3.166568 1.256549 -4.292959
-3.236154 1.073620 -4.282414
-3.297686 0.884167 -4.271605
-3.351596 0.689084 -4.260611
-3.398311 0.489273 -4.249511
-3.438261 0.285629 -4.238380
-3.471869 0.079048 -4.227297
-3.499563 -0.129579 -4.216327
-3.521767 -0.339345 -4.205534
END_3
