BEGIN_3
-4.873160 4.756299 -1.819121
-4.884378 4.740532 -1.822121
-4.897944 4.719609 -1.825142
-4.919185 4.685997 -1.829718
-4.934638 4.662806 -1.830340
-4.954800 4.635434 -1.827510
-4.975426 4.604941 -1.821017
-4.993689 4.578932 -1.815759
-5.013733 4.551510 -1.807674
-5.052455 4.494347 -1.795049
-5.060655 4.481957 -1.792521
-5.103854 4.414339 -1.777068
-5.145513 4.348652 -1.767709
-5.181949 4.290142 -1.755477
-5.193092 4.271608 -1.751473
-5.228016 4.216500 -1.739742
-5.251929 4.183570 -1.735471
-5.278417 4.152735 -1.735669
-5.302836 4.087104 -1.730678
-5.330184 4.031937 -1.737647
-5.344512 3.998114 -1.734079
-5.348557 3.985564 -1.731978
-5.363728 3.949871 -1.732097
-5.381686 3.903930 -1.730359
-5.389881 3.887891 -1.733440
-5.409897 3.840779 -1.737594
-5.417675 3.806895 -1.739000
-5.429557 3.755354 -1.741185
-5.434592 3.734332 -1.743494
-5.438160 3.706358 -1.742470
-5.441961 3.675368 -1.742380
-5.449787 3.648458 -1.741071
-5.462731 3.593656 -1.733849
-5.458741 3.581148 -1.729926
-5.460953 3.518597 -1.741040
-5.462066 3.503018 -1.743593
-5.464325 3.468974 -1.748942
-5.464399 3.440510 -1.754298
-5.464381 3.425496 -1.758030
-5.464437 3.392212 -1.765487
-5.466663 3.380159 -1.768345
-5.469689 3.359098 -1.772800
-5.473065 3.328189 -1.778749
-5.474309 3.309016 -1.782850
-5.474045 3.279803 -1.790179
-5.475267 3.267258 -1.795324
-5.475611 3.248209 -1.801811
-5.480064 3.211939 -1.814934
-5.482725 3.189607 -1.823761
-5.484572 3.179800 -1.828701
-5.488208 3.163512 -1.831179
-5.496387 3.138984 -1.839429
-5.502512 3.107231 -1.850689
-5.509446 3.078334 -1.862165
-5.514124 3.061850 -1.868012
-5.521143 3.020426 -1.882214
-5.526981 2.987394 -1.892183
-5.531668 2.956837 -1.899364
-5.534117 2.931110 -1.905313
-5.536220 2.856105 -1.917830
-5.536532 2.791199 -1.932628
-5.535904 2.764709 -1.936859
-5.534464 2.742115 -1.939381
-5.532110 2.713475 -1.943157
-5.533358 2.682147 -1.944820
-5.533621 2.667910 -1.945455
-5.533323 2.639266 -1.945901
-5.533285 2.605016 -1.946144
-5.531206 2.571131 -1.943799
-5.533879 2.542676 -1.939682
-5.534424 2.533727 -1.937944
-5.536192 2.506784 -1.933140
-5.534170 2.487971 -1.928481
-5.531768 2.457833 -1.925055
-5.528656 2.430586 -1.920307
-5.527544 2.400291 -1.912458
-5.526600 2.387618 -1.908966
-5.525722 2.362876 -1.903392
-5.524160 2.344162 -1.899291
-5.518401 2.303881 -1.891862
-5.513940 2.270980 -1.886956
-5.510525 2.245313 -1.884773
-5.508258 2.222104 -1.883397
-5.506706 2.212281 -1.882005
-5.488648 2.142592 -1.881773
-5.462552 2.083204 -1.890888
-5.461608 2.017337 -1.881756
-5.454753 1.991846 -1.879358
-5.449540 1.966442 -1.878554
-5.440680 1.927500 -1.877119
-5.436604 1.912563 -1.877199
-5.429589 1.884821 -1.878226
-5.428074 1.870554 -1.878544
-5.423147 1.832878 -1.874956
-5.421901 1.823146 -1.873583
-5.416055 1.778871 -1.868590
-5.412645 1.750602 -1.870428
-5.412530 1.732308 -1.873333
-5.408994 1.717949 -1.873585
-5.403598 1.686594 -1.876383
-5.399147 1.665986 -1.879455
-5.393209 1.643502 -1.886395
-5.393081 1.631038 -1.891860
-5.385441 1.598039 -1.905364
-5.380838 1.571960 -1.912089
-5.377992 1.552730 -1.917351
-5.375457 1.541335 -1.919859
-5.370006 1.523042 -1.924135
-5.365501 1.497727 -1.930049
-5.359576 1.468727 -1.934205
-5.353310 1.439915 -1.937031
-5.343295 1.395652 -1.938905
-5.336366 1.370855 -1.937963
-5.325791 1.335345 -1.935249
-5.317508 1.305663 -1.931793
-5.309274 1.297797 -1.925534
-5.309650 1.283997 -1.929260
-5.302613 1.261460 -1.926291
-5.296845 1.243037 -1.921867
-5.292422 1.226368 -1.918641
-5.285666 1.200855 -1.913555
-5.283810 1.191588 -1.911062
-5.281158 1.181749 -1.908187
-5.276590 1.155577 -1.900946
-5.272699 1.136880 -1.894982
-5.266047 1.100018 -1.884881
-5.255429 1.064054 -1.881621
-5.249600 1.036848 -1.882851
-5.244668 1.010199 -1.883908
-5.240110 0.989029 -1.884592
-5.227299 0.935481 -1.893258
-5.219953 0.893852 -1.917419
-5.216103 0.864055 -1.935716
-5.212567 0.845681 -1.945272
-5.211676 0.833798 -1.951412
-5.208340 0.816766 -1.957794
-5.204628 0.793552 -1.967508
-5.199096 0.790072 -1.969334
-5.199358 0.777356 -1.974505
-5.194825 0.755078 -1.985371
-5.189110 0.726787 -2.008438
-5.179655 0.703973 -2.027675
-5.172085 0.673822 -2.037572
-5.156334 0.632491 -2.050075
-5.128153 0.573986 -2.082597
-5.103451 0.511963 -2.107374
-5.088294 0.482852 -2.114603
-5.075240 0.469982 -2.121501
-5.051371 0.418107 -2.129481
-5.036033 0.392626 -2.132736
-5.020893 0.369573 -2.129402
-4.991601 0.333726 -2.125810
-4.962902 0.290291 -2.129068
-4.934217 0.235940 -2.126780
-4.920461 0.189566 -2.126728
-4.903949 0.150605 -2.127594
-4.895682 0.132683 -2.126830
-4.871004 0.092302 -2.120974
-4.852834 0.043009 -2.122139
-4.844722 0.021464 -2.122189
-4.839831 0.017565 -2.125058
-4.829279 -0.005458 -2.127336
-4.818887 -0.036332 -2.130045
-4.803239 -0.070799 -2.132068
-4.784588 -0.116289 -2.132589
-4.780465 -0.123704 -2.138443
-4.780750 -0.134251 -2.137815
-4.775675 -0.177010 -2.150444
-4.768064 -0.203584 -2.155883
-4.761049 -0.218526 -2.158705
-4.748538 -0.259813 -2.167793
-4.744819 -0.273565 -2.171986
-4.730287 -0.313530 -2.184899
-4.720377 -0.344503 -2.188743
-4.712159 -0.367106 -2.193492
-4.697698 -0.403252 -2.201797
-4.689600 -0.431492 -2.207056
-4.676686 -0.466140 -2.215440
-4.655416 -0.508764 -2.218723
-4.644918 -0.531440 -2.218140
-4.627198 -0.558965 -2.219013
-4.612725 -0.585620 -2.219437
-4.603072 -0.604496 -2.219039
-4.587389 -0.633419 -2.221052
-4.578333 -0.664118 -2.223264
-4.566443 -0.704777 -2.227673
-4.560592 -0.722477 -2.228885
-4.556936 -0.733824 -2.229639
-4.545935 -0.770517 -2.232788
-4.534931 -0.802394 -2.233417
-4.529839 -0.829073 -2.234162
-4.523795 -0.852358 -2.234807
-4.519431 -0.866260 -2.233918
-4.514033 -0.885125 -2.234379
-4.498418 -0.935754 -2.234972
-4.489714 -0.961347 -2.235883
-4.478448 -0.986383 -2.241384
-4.478718 -0.993335 -2.236938
-4.451729 -1.074826 -2.241698
-4.431344 -1.121625 -2.243326
-4.421624 -1.167476 -2.245114
-4.416884 -1.184803 -2.245513
-4.415712 -1.197723 -2.246815
-4.405809 -1.273919 -2.243941
-4.394372 -1.327199 -2.242965
-4.379364 -1.401066 -2.241707
-4.366763 -1.455877 -2.235473
-4.359208 -1.478702 -2.230233
-4.348586 -1.506034 -2.223095
-4.342726 -1.518207 -2.219776
-4.325862 -1.559313 -2.207518
-4.316556 -1.588371 -2.200740
-4.302433 -1.630912 -2.187755
-4.284087 -1.684891 -2.172469
-4.275469 -1.713554 -2.163147
-4.266871 -1.744085 -2.152619
-4.254999 -1.784289 -2.139543
-4.245389 -1.819675 -2.126835
-4.235544 -1.861862 -2.111610
-4.216719 -1.924061 -2.086428
-4.201560 -1.985597 -2.058025
-4.193311 -2.057973 -2.033763
-4.187500 -2.074075 -2.033112
-4.182708 -2.145971 -2.004094
-4.179745 -2.180388 -1.992216
-4.176799 -2.208575 -1.983287
-4.174161 -2.234907 -1.974838
-4.171234 -2.279692 -1.961304
-4.164968 -2.299714 -1.958859
-4.167625 -2.311469 -1.951275
-4.162083 -2.363313 -1.934034
-4.155608 -2.398805 -1.918539
-4.151907 -2.416007 -1.910436
-4.144379 -2.449471 -1.896550
-4.130669 -2.504069 -1.862777
-4.128578 -2.510992 -1.859373
-4.127492 -2.518857 -1.855864
-4.113495 -2.585894 -1.827280
-4.091362 -2.656523 -1.791922
-4.071068 -2.735910 -1.752176
-4.052781 -2.793480 -1.724372
-4.037142 -2.836385 -1.704641
-4.027660 -2.865684 -1.688363
-4.010146 -2.901784 -1.673473
-3.998791 -2.937157 -1.649365
-3.981774 -2.993776 -1.622145
-3.967580 -3.044199 -1.597786
-3.955551 -3.081357 -1.571975
-3.941954 -3.114143 -1.553912
-3.928804 -3.141810 -1.533023
-3.905116 -3.190793 -1.490804
-3.871608 -3.247791 -1.430512
-3.830250 -3.308430 -1.369220
-3.801659 -3.360152 -1.331518
-3.794390 -3.370992 -1.326586
-3.783095 -3.397296 -1.314411
-3.762463 -3.426640 -1.302243
-3.748042 -3.457163 -1.293476
-3.738082 -3.475405 -1.288003
-3.725669 -3.487190 -1.285572
-3.720589 -3.505391 -1.279377
-3.710021 -3.525231 -1.274692
-3.706262 -3.534309 -1.272951
-3.692263 -3.560463 -1.267622
-3.681632 -3.583073 -1.261561
-3.667417 -3.612000 -1.255173
-3.646125 -3.646711 -1.243009
-3.640851 -3.659413 -1.242494
-3.620542 -3.711312 -1.245778
-3.615223 -3.725768 -1.246272
-3.594384 -3.772897 -1.247118
-3.580897 -3.800719 -1.247209
-3.566237 -3.831765 -1.248085
-3.545596 -3.871833 -1.247444
-3.536000 -3.891117 -1.247634
-3.510589 -3.935576 -1.246964
-3.496557 -3.965549 -1.249754
-3.479320 -3.994767 -1.251465
-3.455356 -4.038800 -1.252597
-3.443295 -4.059123 -1.253716
-3.431349 -4.078012 -1.254327
-3.401586 -4.121458 -1.256850
-3.380854 -4.161650 -1.257110
-3.365550 -4.184652 -1.257749
-3.330655 -4.236340 -1.262654
-3.295428 -4.283576 -1.271196
-3.286701 -4.298783 -1.273461
-3.263868 -4.332725 -1.280887
-3.249598 -4.359021 -1.287447
-3.241765 -4.369404 -1.289972
-3.222769 -4.393116 -1.294321
-3.207878 -4.410433 -1.297170
-3.192047 -4.439735 -1.313184
-3.173783 -4.469326 -1.330791
-3.166702 -4.484385 -1.341623
-3.150761 -4.513422 -1.362500
-3.140859 -4.526183 -1.369665
-3.132594 -4.537935 -1.376420
-3.118498 -4.557652 -1.391242
-3.103439 -4.576143 -1.405576
-3.084006 -4.596111 -1.417440
-3.052224 -4.630142 -1.432769
-3.035306 -4.647851 -1.443422
-3.027384 -4.655326 -1.448330
-3.015044 -4.665484 -1.455006
-2.973584 -4.701062 -1.476906
-2.952251 -4.716917 -1.491102
-2.918323 -4.743833 -1.510742
-2.902892 -4.755739 -1.519004
-2.895852 -4.761891 -1.523513
-2.864541 -4.789211 -1.543357
-2.839254 -4.811698 -1.559469
-2.829487 -4.820186 -1.566138
-2.820413 -4.826265 -1.572050
-2.783597 -4.851499 -1.598440
-2.750977 -4.872541 -1.613417
-2.736583 -4.881606 -1.619024
-2.721172 -4.893481 -1.625316
-2.702964 -4.908485 -1.626926
-2.668147 -4.933513 -1.634142
-2.629675 -4.959127 -1.640840
-2.621069 -4.965008 -1.641769
-2.575658 -4.995558 -1.645941
-2.524266 -5.031969 -1.652158
-2.514646 -5.038579 -1.654534
-2.502605 -5.044975 -1.655915
-2.441438 -5.079723 -1.666687
-2.373964 -5.119199 -1.680074
-2.314205 -5.159967 -1.688801
-2.287858 -5.166824 -1.698044
-2.246314 -5.177886 -1.714599
-2.218503 -5.189445 -1.723214
-2.183325 -5.207619 -1.731702
-2.161890 -5.220375 -1.735384
-2.127230 -5.242990 -1.738153
-2.105000 -5.252637 -1.745276
-2.069720 -5.267748 -1.754879
-2.033208 -5.282416 -1.766695
-2.015055 -5.289769 -1.772063
-1.993244 -5.296844 -1.780212
-1.966982 -5.308520 -1.787457
-1.930951 -5.318223 -1.800748
-1.918927 -5.323582 -1.805900
-1.878168 -5.338655 -1.816755
-1.850351 -5.347744 -1.825448
-1.825118 -5.357542 -1.833067
-1.795060 -5.369637 -1.838215
-1.775050 -5.375586 -1.842507
-1.740343 -5.386500 -1.855780
-1.712823 -5.392635 -1.865458
-1.699154 -5.396232 -1.869386
-1.663058 -5.405172 -1.881068
-1.624405 -5.415866 -1.896176
-1.603735 -5.418698 -1.908316
-1.548233 -5.432720 -1.946889
-1.539065 -5.438285 -1.954070
-1.501468 -5.454744 -1.982806
-1.462928 -5.471222 -2.015237
-1.415509 -5.488675 -2.050663
-1.394707 -5.496311 -2.065897
-1.354696 -5.511899 -2.094084
-1.311337 -5.524281 -2.117331
-1.292121 -5.529704 -2.127533
-1.254804 -5.542124 -2.146740
-1.225243 -5.549710 -2.162041
-1.176544 -5.559968 -2.187366
-1.129634 -5.577268 -2.219771
-1.101393 -5.585096 -2.236056
-1.045577 -5.597151 -2.272383
-0.991620 -5.615993 -2.311868
-0.956846 -5.622180 -2.337975
-0.919772 -5.632485 -2.361763
-0.910867 -5.629944 -2.368940
-0.860198 -5.645261 -2.401193
-0.817637 -5.654569 -2.429312
-0.795717 -5.658010 -2.444180
-0.704809 -5.677083 -2.515624
-0.619154 -5.695729 -2.590204
-0.546453 -5.703238 -2.656780
-0.539216 -5.709042 -2.661125
-0.467403 -5.718869 -2.720485
-0.388074 -5.732630 -2.787273
-0.325950 -5.746741 -2.839406
-0.292432 -5.748270 -2.866529
-0.253788 -5.753289 -2.891308
-0.226154 -5.755175 -2.908187
-0.196667 -5.757542 -2.924532
-0.135110 -5.761978 -2.958266
-0.107999 -5.764858 -2.971212
-0.094923 -5.765548 -2.977516
-0.050331 -5.769227 -3.000439
-0.008464 -5.772217 -3.025629
0.002369 -5.773014 -3.032333
0.046759 -5.777194 -3.060328
0.112719 -5.786276 -3.104557
0.169352 -5.787405 -3.156219
0.210434 -5.788256 -3.183002
0.246740 -5.795833 -3.210984
0.270230 -5.794001 -3.231865
0.285753 -5.792682 -3.247537
0.310240 -5.788807 -3.272400
0.340508 -5.784524 -3.301481
0.375315 -5.773242 -3.331667
0.405774 -5.759496 -3.358538
0.430714 -5.748969 -3.385431
0.445765 -5.741024 -3.399698
0.470497 -5.731129 -3.418085
0.492675 -5.723941 -3.432486
0.511839 -5.720302 -3.442936
0.528123 -5.715889 -3.450874
0.548397 -5.710497 -3.463899
0.570965 -5.701556 -3.481990
0.575931 -5.696427 -3.481689
0.584119 -5.695909 -3.492548
0.605887 -5.689388 -3.507268
0.616005 -5.687646 -3.512810
0.654081 -5.682469 -3.535028
0.674770 -5.680257 -3.547965
0.716654 -5.672878 -3.575716
0.751880 -5.663369 -3.603518
0.770625 -5.658580 -3.620524
0.808029 -5.648080 -3.653542
0.827579 -5.638465 -3.672736
0.862218 -5.617222 -3.709478
0.891169 -5.598765 -3.740864
0.914225 -5.586802 -3.760916
0.942001 -5.572574 -3.786618
0.959584 -5.562258 -3.804149
0.975504 -5.552405 -3.818859
1.005278 -5.533516 -3.848884
1.023780 -5.521734 -3.868242
1.048921 -5.506337 -3.892785
1.076745 -5.489430 -3.919032
1.099026 -5.475785 -3.940900
1.122459 -5.459864 -3.963248
1.151013 -5.441494 -3.987834
1.190411 -5.416702 -4.020290
1.223747 -5.401575 -4.043166
1.247303 -5.390871 -4.059535
1.284914 -5.372963 -4.081741
1.333650 -5.338328 -4.108887
1.370128 -5.313035 -4.124767
1.412536 -5.288341 -4.138465
1.429754 -5.277345 -4.141939
1.476521 -5.243084 -4.152501
1.506874 -5.220427 -4.158255
1.520200 -5.210487 -4.160460
1.538302 -5.195018 -4.163140
1.561951 -5.173928 -4.167952
1.578800 -5.158664 -4.171652
1.601061 -5.134459 -4.176867
1.632053 -5.105060 -4.182311
1.645448 -5.093198 -4.184944
1.657313 -5.082660 -4.186979
1.700070 -5.044681 -4.194080
1.721629 -5.025091 -4.196640
1.761512 -4.989079 -4.203176
1.784610 -4.968121 -4.206341
1.808764 -4.944654 -4.212048
1.851736 -4.904771 -4.217370
1.862756 -4.894523 -4.218369
1.907581 -4.849777 -4.227022
1.925464 -4.829674 -4.231540
1.962227 -4.787794 -4.238102
2.001657 -4.744201 -4.247243
2.038425 -4.705524 -4.251427
2.078252 -4.665803 -4.257045
2.097260 -4.646745 -4.259919
2.146371 -4.595289 -4.268207
2.198199 -4.536540 -4.276619
2.227328 -4.503400 -4.280633
2.273710 -4.446821 -4.288488
2.332304 -4.368293 -4.298081
2.344566 -4.352925 -4.299424
2.356753 -4.338055 -4.301343
2.400975 -4.280536 -4.307002
2.427081 -4.244161 -4.310311
2.453620 -4.203362 -4.313668
2.475871 -4.168217 -4.314753
2.505282 -4.122573 -4.315943
2.517357 -4.106212 -4.316305
2.560853 -4.042733 -4.317944
2.594595 -3.990651 -4.315245
2.629967 -3.938699 -4.312584
2.635564 -3.930120 -4.311665
2.667427 -3.883050 -4.310637
2.680305 -3.861869 -4.308084
2.718661 -3.796430 -4.311701
2.757645 -3.701424 -4.314137
2.824679 -3.587787 -4.312409
2.856442 -3.541753 -4.308500
2.877853 -3.511041 -4.305065
2.893641 -3.490671 -4.303095
2.923096 -3.452761 -4.300262
2.942527 -3.424975 -4.295962
2.954736 -3.407488 -4.293525
2.976140 -3.377845 -4.289975
2.996648 -3.354059 -4.285638
3.012354 -3.335093 -4.282134
3.044094 -3.292904 -4.276422
3.058944 -3.271509 -4.273951
3.087972 -3.231669 -4.270743
3.091975 -3.225326 -4.269593
3.106530 -3.207673 -4.267798
3.121235 -3.187099 -4.263368
3.156246 -3.144453 -4.259611
3.188104 -3.106243 -4.253523
3.197872 -3.094753 -4.252208
3.253273 -3.029154 -4.237805
3.291906 -2.982991 -4.227632
3.322190 -2.947915 -4.224640
3.343639 -2.920699 -4.216993
3.360338 -2.901851 -4.214983
3.383097 -2.876950 -4.210240
3.393630 -2.866029 -4.208215
3.411683 -2.846261 -4.204076
3.426926 -2.828742 -4.199808
3.459873 -2.791964 -4.193322
3.466595 -2.785032 -4.192745
3.493081 -2.753579 -4.187145
3.519677 -2.726726 -4.182359
3.541379 -2.705559 -4.177715
3.557681 -2.689877 -4.174561
3.589659 -2.661070 -4.169968
3.616696 -2.638529 -4.167300
3.671134 -2.594548 -4.164485
3.710464 -2.555683 -4.161395
3.809657 -2.457383 -4.154595
3.817426 -2.452262 -4.156539
3.898701 -2.381638 -4.148496
3.943944 -2.331715 -4.146279
3.983847 -2.280627 -4.146248
4.000689 -2.259220 -4.146719
4.037950 -2.212805 -4.144689
4.047305 -2.201499 -4.144005
4.068873 -2.175380 -4.144368
4.103395 -2.138432 -4.137616
4.129887 -2.114261 -4.140742
4.167327 -2.075746 -4.138286
4.176785 -2.065654 -4.137880
4.197499 -2.043703 -4.137388
4.231717 -2.007713 -4.138236
4.264545 -1.963781 -4.137620
4.274370 -1.949381 -4.137156
4.284447 -1.935258 -4.137730
4.318345 -1.880743 -4.138553
4.355820 -1.818671 -4.139284
4.367997 -1.798384 -4.139130
4.376829 -1.781194 -4.138373
4.416584 -1.718821 -4.135001
4.430274 -1.686522 -4.135251
4.455525 -1.628867 -4.134550
4.464258 -1.609182 -4.133907
4.502185 -1.529408 -4.129001
4.521944 -1.482519 -4.125831
4.541763 -1.430156 -4.124670
4.559034 -1.376428 -4.121896
4.561653 -1.364900 -4.122879
4.577440 -1.268644 -4.120430
4.603961 -1.159225 -4.118735
4.625400 -1.053940 -4.112741
4.628404 -1.033482 -4.112206
4.635494 -0.982335 -4.111185
4.643334 -0.947755 -4.108508
4.649931 -0.917969 -4.106067
4.659895 -0.852999 -4.103006
4.662951 -0.830537 -4.097974
4.665722 -0.818902 -4.101274
4.675914 -0.765136 -4.099226
4.680368 -0.714636 -4.093958
4.693754 -0.650011 -4.090909
4.703527 -0.599076 -4.085098
4.706210 -0.582298 -4.083795
4.718235 -0.506114 -4.076879
4.723594 -0.441859 -4.070253
4.732712 -0.376022 -4.063684
4.734873 -0.361964 -4.062467
4.741530 -0.291584 -4.053656
4.740572 -0.219981 -4.048944
4.742229 -0.194767 -4.046476
4.745686 -0.151574 -4.040234
4.749530 -0.097080 -4.029384
4.751729 -0.086423 -4.029985
4.751885 -0.042424 -4.023530
4.751011 0.002663 -4.016893
4.750591 0.010427 -4.015842
4.748940 0.048712 -4.010459
4.748511 0.073294 -4.006295
4.749623 0.115562 -3.997489
4.749464 0.123263 -3.995689
4.748447 0.201310 -3.979664
4.747667 0.214264 -3.977417
4.739694 0.290607 -3.963543
4.734910 0.323870 -3.954496
4.736384 0.332608 -3.955062
4.733938 0.400389 -3.940333
4.728357 0.436391 -3.933289
4.724654 0.453379 -3.930837
4.716172 0.491311 -3.925310
4.705554 0.537160 -3.918118
4.694610 0.579424 -3.912775
4.686924 0.613876 -3.906808
4.680901 0.640223 -3.901755
4.670443 0.691472 -3.893978
4.659437 0.730372 -3.888099
4.641115 0.812216 -3.872432
4.637359 0.826845 -3.869390
4.632788 0.846151 -3.865066
4.619976 0.901787 -3.852248
4.616108 0.924332 -3.845555
4.603539 0.976191 -3.830879
4.599833 0.990160 -3.826602
4.581192 1.063326 -3.803896
4.577185 1.079305 -3.798889
4.554791 1.142420 -3.781596
4.550463 1.154128 -3.776959
4.538774 1.189245 -3.766235
4.530202 1.218377 -3.756448
4.526836 1.232409 -3.751618
4.518764 1.263213 -3.739012
4.513957 1.282054 -3.732742
4.510422 1.294087 -3.727962
4.502172 1.318216 -3.719761
4.491603 1.355024 -3.703385
4.472343 1.406394 -3.684729
4.460271 1.442297 -3.669160
4.432582 1.488678 -3.647090
4.420597 1.535466 -3.627052
4.394362 1.592207 -3.605271
4.368083 1.641700 -3.588937
4.341553 1.702208 -3.573725
4.317815 1.758239 -3.559635
4.286762 1.829497 -3.548790
4.264484 1.874352 -3.543949
4.259589 1.885046 -3.542020
4.254371 1.884028 -3.538116
4.245165 1.906782 -3.530784
4.237509 1.921303 -3.526134
4.228807 1.945735 -3.515115
4.225381 1.954949 -3.511501
4.205430 1.997470 -3.494681
4.190412 2.029201 -3.482258
4.178380 2.058877 -3.468783
4.164878 2.087461 -3.454542
4.154759 2.112559 -3.439062
4.116312 2.168789 -3.397197
4.069389 2.244185 -3.362412
4.048224 2.287769 -3.345250
4.024883 2.321529 -3.326727
3.988798 2.374578 -3.299185
3.973648 2.414052 -3.274898
3.961315 2.438416 -3.258135
3.956472 2.441945 -3.251259
3.938104 2.483334 -3.235632
3.918048 2.515471 -3.216876
3.910221 2.527640 -3.210417
3.897988 2.547146 -3.200295
3.891343 2.559369 -3.193968
3.877338 2.582964 -3.181159
3.858582 2.611839 -3.163709
3.843162 2.645128 -3.145231
3.834773 2.656035 -3.138941
3.827628 2.661936 -3.133868
3.825794 2.667697 -3.134301
3.813439 2.686715 -3.123613
3.785434 2.723497 -3.102144
3.753354 2.779746 -3.072681
3.748230 2.786983 -3.069097
3.744314 2.792834 -3.067621
3.732602 2.807095 -3.063389
3.689543 2.863364 -3.041759
3.667676 2.887827 -3.033878
3.665040 2.895237 -3.035374
3.648570 2.914390 -3.036085
3.635557 2.930969 -3.037544
3.613759 2.956546 -3.038140
3.597253 2.977720 -3.037063
3.573045 3.011106 -3.036883
3.547384 3.047238 -3.035105
3.523092 3.080800 -3.034737
3.498427 3.114371 -3.035446
3.477357 3.146257 -3.035452
3.455636 3.177252 -3.034833
3.433314 3.213232 -3.032525
3.415332 3.242770 -3.028386
3.386709 3.291240 -3.019293
3.375737 3.312629 -3.014340
3.345482 3.371619 -3.001165
3.328051 3.405129 -2.997507
3.312912 3.437140 -2.991887
3.290343 3.481138 -2.986337
3.287468 3.489885 -2.986114
3.274976 3.514076 -2.982249
3.261909 3.533190 -2.977085
3.263825 3.540291 -2.978286
3.255661 3.565227 -2.975080
3.243133 3.600607 -2.969375
3.228325 3.643791 -2.960595
3.215745 3.690033 -2.956290
3.199476 3.727251 -2.951706
3.189579 3.765911 -2.948916
3.175771 3.811615 -2.940392
3.161372 3.868824 -2.936219
3.144269 3.923496 -2.929540
3.128796 3.976053 -2.924779
3.125248 3.989713 -2.923639
3.103559 4.068657 -2.917140
3.096669 4.092511 -2.914700
3.094037 4.100124 -2.914136
3.091134 4.109167 -2.913443
3.065399 4.195628 -2.905268
3.054968 4.237416 -2.901955
3.050567 4.253645 -2.900490
3.032639 4.328388 -2.891259
3.023831 4.362735 -2.888430
3.015347 4.416358 -2.878830
3.007547 4.455759 -2.876292
2.999305 4.489879 -2.876019
2.988804 4.523956 -2.874173
2.981432 4.545754 -2.875330
2.970314 4.575891 -2.882525
2.955807 4.607074 -2.885173
2.953458 4.616386 -2.887380
2.937318 4.651969 -2.891387
2.925471 4.679461 -2.891695
2.912460 4.709729 -2.894963
2.882205 4.772878 -2.900056
2.877492 4.781876 -2.900741
2.854216 4.826019 -2.904524
2.837606 4.853804 -2.902653
2.800644 4.937067 -2.890538
2.781923 4.981049 -2.890185
2.758360 5.024565 -2.886148
2.754288 5.034181 -2.884196
2.732141 5.080608 -2.871111
2.719525 5.111493 -2.858589
2.716652 5.120686 -2.854761
2.702934 5.152508 -2.838719
2.690099 5.172714 -2.830590
2.673742 5.199800 -2.821159
2.658440 5.225522 -2.812366
2.647016 5.243984 -2.806397
2.622124 5.282362 -2.796559
2.589625 5.332851 -2.789004
2.574071 5.354304 -2.787721
2.551014 5.384389 -2.789305
2.530759 5.407533 -2.788855
2.518135 5.423961 -2.786652
2.497156 5.453663 -2.779858
2.476447 5.482648 -2.772768
2.428768 5.539985 -2.761187
2.417500 5.551742 -2.759003
2.384989 5.586516 -2.754404
2.347969 5.627760 -2.744954
2.296881 5.689739 -2.728173
2.268929 5.722122 -2.718731
2.228943 5.772194 -2.700777
2.191748 5.815291 -2.687511
2.152493 5.857932 -2.675954
2.105586 5.906979 -2.662422
2.070210 5.945115 -2.649614
2.051244 5.966384 -2.642327
2.010078 6.011814 -2.626070
1.968956 6.054994 -2.608918
1.952639 6.071116 -2.601755
1.912126 6.112156 -2.584551
1.877374 6.143169 -2.569906
1.848405 6.168159 -2.558018
1.817985 6.194795 -2.545761
1.798965 6.211372 -2.536500
1.741101 6.262755 -2.505165
1.680958 6.304691 -2.481903
1.657585 6.319271 -2.472500
1.628046 6.340263 -2.457985
1.595243 6.363398 -2.441822
1.567641 6.380106 -2.426847
1.532453 6.400220 -2.410594
1.506902 6.412786 -2.399176
1.452744 6.440550 -2.374322
1.428687 6.451798 -2.361482
1.395802 6.466520 -2.344707
1.357163 6.481932 -2.328055
1.290501 6.505306 -2.289514
1.275863 6.510054 -2.281003
1.266155 6.512213 -2.276118
1.212888 6.525948 -2.246191
1.173341 6.534404 -2.224388
1.155024 6.542122 -2.211280
1.128221 6.548329 -2.193846
1.103789 6.551983 -2.177040
1.090341 6.552163 -2.168549
1.078867 6.555773 -2.157082
1.063293 6.558229 -2.143053
1.056106 6.558146 -2.137081
1.036071 6.559183 -2.117708
1.010329 6.555918 -2.096623
0.985669 6.560166 -2.068327
0.959786 6.559899 -2.042311
0.951621 6.560118 -2.033974
0.945150 6.560741 -2.027922
0.909772 6.561923 -1.995921
0.883985 6.566069 -1.977355
0.875080 6.562939 -1.974051
0.868253 6.567760 -1.965021
0.848983 6.569317 -1.949711
0.830108 6.571331 -1.935152
0.810522 6.571955 -1.918349
0.790266 6.569052 -1.904035
0.764320 6.576914 -1.883935
0.728187 6.580985 -1.860413
0.695182 6.586444 -1.843126
0.663110 6.591944 -1.826067
0.637477 6.596195 -1.812331
0.623955 6.594954 -1.807371
0.592028 6.601377 -1.786467
0.550721 6.611765 -1.771794
0.535006 6.610334 -1.766554
0.466804 6.628803 -1.742787
0.400902 6.643652 -1.719642
0.338639 6.660278 -1.705048
0.293455 6.670307 -1.693125
0.247723 6.680555 -1.681989
0.184119 6.693153 -1.666286
0.119218 6.707192 -1.655275
0.067478 6.718339 -1.648141
0.011821 6.728793 -1.640586
-0.027011 6.733993 -1.632765
-0.077666 6.741248 -1.623819
-0.104499 6.744260 -1.619235
-0.156171 6.749340 -1.614651
-0.197820 6.753269 -1.614142
-0.210637 6.754541 -1.613943
-0.257764 6.756174 -1.615230
-0.305038 6.757341 -1.612274
-0.348893 6.755699 -1.604839
-0.409718 6.752542 -1.593949
-0.447977 6.748983 -1.588639
-0.502714 6.742943 -1.581759
-0.518409 6.741772 -1.581698
-0.545671 6.739073 -1.581670
-0.581170 6.731122 -1.581645
-0.590218 6.733418 -1.581179
-0.643877 6.726071 -1.580235
-0.673616 6.721586 -1.582847
-0.727505 6.707261 -1.582363
-0.737635 6.711766 -1.582350
-0.797779 6.700289 -1.583853
-0.854038 6.686953 -1.585474
-0.924342 6.677213 -1.587257
-0.944080 6.672004 -1.586765
-1.005524 6.661322 -1.587636
-1.074033 6.647259 -1.600812
-1.180422 6.627721 -1.624569
-1.316745 6.598297 -1.654930
-1.336137 6.592177 -1.657271
-1.408850 6.573021 -1.665079
-1.489494 6.545550 -1.667651
-1.620574 6.496356 -1.663453
-1.721337 6.462178 -1.658959
-1.767321 6.445726 -1.655336
-1.801367 6.433696 -1.652897
-1.833023 6.422039 -1.650391
-1.865509 6.409341 -1.647402
-1.898790 6.394969 -1.642130
-1.952283 6.373087 -1.642693
-1.993462 6.361225 -1.642865
-2.022966 6.351328 -1.644653
-2.050493 6.342960 -1.646586
-2.076533 6.334253 -1.649067
-2.143393 6.314569 -1.654661
-2.220861 6.288809 -1.667624
-2.254296 6.279107 -1.674492
-2.264730 6.276381 -1.676223
-2.292445 6.268032 -1.681686
-2.323943 6.255422 -1.687387
-2.371472 6.243139 -1.694633
-2.394728 6.235764 -1.698800
-2.411703 6.230409 -1.701108
-2.465936 6.211004 -1.709190
-2.510043 6.199371 -1.716769
-2.520981 6.196009 -1.718896
-2.546117 6.188404 -1.724528
-2.554797 6.181073 -1.727561
-2.570169 6.181332 -1.728009
-2.598138 6.172657 -1.730272
-2.648212 6.152443 -1.735756
-2.656918 6.154385 -1.736512
-2.698498 6.143631 -1.741716
-2.720127 6.136559 -1.741802
-2.747718 6.124836 -1.737970
-2.781793 6.115537 -1.743695
-2.794482 6.109680 -1.746727
-2.805981 6.105073 -1.748603
-2.814214 6.103871 -1.749923
-2.842512 6.093493 -1.757519
-2.882636 6.079847 -1.763924
-2.937526 6.061078 -1.771802
-2.950996 6.055908 -1.773107
-2.987855 6.044709 -1.775288
-3.018513 6.035154 -1.775214
-3.050422 6.025883 -1.772309
-3.083344 6.015753 -1.770095
-3.134393 6.001345 -1.763921
-3.195245 5.977569 -1.765143
-3.284877 5.945573 -1.768460
-3.381050 5.909951 -1.766962
-3.390325 5.905879 -1.766195
-3.445625 5.886892 -1.764166
-3.473983 5.877521 -1.765816
-3.532398 5.853665 -1.774592
-3.539123 5.850357 -1.775634
-3.548677 5.846631 -1.777574
-3.590593 5.831755 -1.787146
-3.621171 5.817766 -1.793129
-3.688981 5.785322 -1.809070
-3.710142 5.775083 -1.813741
-3.721188 5.770144 -1.815318
-3.758729 5.751942 -1.822350
-3.806600 5.727957 -1.828475
-3.821897 5.720783 -1.828527
-3.859240 5.701812 -1.830045
-3.885945 5.686688 -1.831526
-3.961077 5.643909 -1.831833
-4.029282 5.599989 -1.838728
-4.076851 5.571196 -1.836139
-4.093469 5.560587 -1.835158
-4.128979 5.539871 -1.829667
-4.159730 5.521022 -1.824289
-4.220203 5.480822 -1.811876
-4.267753 5.445441 -1.805148
-4.306696 5.414627 -1.795308
-4.355283 5.372905 -1.783976
-4.390503 5.343682 -1.775300
-4.423652 5.309464 -1.765226
-4.458116 5.275169 -1.761930
-4.490268 5.244285 -1.756302
-4.532159 5.192498 -1.751943
-4.558127 5.170186 -1.752956
-4.575240 5.149645 -1.749637
-4.591369 5.131440 -1.746848
-4.609958 5.115791 -1.746138
-4.638420 5.086398 -1.751280
-4.690618 5.020082 -1.766546
-4.700845 5.005556 -1.770699
-4.708614 4.995010 -1.775194
-4.773177 4.912897 -1.790893
-4.781273 4.893455 -1.790445
-4.811443 4.851089 -1.797240
-4.829345 4.826001 -1.803382
-4.856094 4.783480 -1.812730
END_3
