BEGIN_8
31.999973 25.670048 -13.670794
31.835485 25.716702 -13.576999
31.672861 25.746557 -13.471076
31.516117 25.789690 -13.357100
31.366520 25.830202 -13.234642
31.219303 25.868580 -13.106365
31.071369 25.907106 -12.980805
30.930786 25.961580 -12.846595
30.779045 25.998981 -12.724338
30.622417 26.040741 -12.604924
30.461065 26.076035 -12.504185
30.285391 26.109709 -12.406590
30.108875 26.143295 -12.322674
29.927006 26.180426 -12.245330
29.737720 26.207602 -12.185119
29.550774 26.246256 -12.116971
29.361692 26.283884 -12.056321
29.165726 26.294054 -11.999749
28.971054 26.291882 -11.946812
28.777592 26.306429 -11.880272
28.587915 26.304554 -11.814408
28.389647 26.303671 -11.748938
28.202244 26.258598 -11.688583
28.011299 26.215851 -11.626724
27.823938 26.187721 -11.553584
27.636377 26.135008 -11.492479
27.450045 26.070173 -11.435478
27.273369 25.976278 -11.386572
27.098597 25.884745 -11.336952
26.930553 25.778410 -11.286463
26.767748 25.656961 -11.244227
26.603703 25.549976 -11.190435
26.437193 25.433445 -11.135957
26.294559 25.292881 -11.096146
26.142244 25.164227 -11.045935
26.002508 25.013401 -11.010694
25.868481 24.860229 -10.969853
25.733278 24.706398 -10.929600
25.627113 24.531466 -10.911561
25.518263 24.361977 -10.888494
25.412252 24.179598 -10.873054
25.337883 23.993210 -10.888916
25.268738 23.798012 -10.908767
25.184914 23.614342 -10.903152
25.109938 23.424793 -10.919971
25.069530 23.226913 -10.946177
25.019083 23.030226 -10.966055
24.975937 22.835487 -10.980390
24.937592 22.641275 -10.993090
24.892424 22.445009 -10.991480
24.842945 22.252237 -10.981077
24.806988 22.056839 -10.971102
24.787720 21.854578 -10.980042
24.777372 21.653255 -10.980300
24.752335 21.450754 -10.971025
24.701820 21.257488 -10.944085
24.660841 21.055815 -10.913838
24.648216 20.857439 -10.910498
24.649017 20.644144 -10.930809
24.678217 20.453199 -10.983099
24.677986 20.253439 -11.007962
24.693977 20.063265 -11.056303
24.714674 19.882599 -11.114642
24.732138 19.704607 -11.170181
24.695126 19.499704 -11.160145
24.679298 19.310095 -11.164224
24.655159 19.114120 -11.153664
24.633236 18.919546 -11.143192
24.606182 18.725224 -11.135842
24.578793 18.530010 -11.128901
24.549391 18.333794 -11.118678
24.518456 18.137907 -11.100103
24.484690 17.942408 -11.081569
24.448235 17.746635 -11.062103
24.410402 17.552624 -11.033125
24.368423 17.356247 -11.014564
24.321638 17.160782 -11.011633
24.272562 16.965630 -11.020349
24.222548 16.772966 -11.035274
24.172667 16.579418 -11.047178
24.121552 16.387537 -11.051607
24.070208 16.196184 -11.050084
24.017677 16.006023 -11.042026
23.967230 15.816833 -11.033762
23.910685 15.627203 -11.017292
23.841259 15.448485 -10.979462
23.765600 15.275999 -10.921743
23.691551 15.099731 -10.876150
23.610826 14.923406 -10.825995
23.527250 14.752423 -10.773603
23.444950 14.568962 -10.730767
23.386148 14.379507 -10.715627
23.336576 14.184947 -10.710324
23.289150 13.992578 -10.706640
23.235180 13.798061 -10.692282
23.164242 13.619706 -10.656776
23.097689 13.436902 -10.621380
23.042086 13.249954 -10.593421
22.989943 13.060924 -10.571421
22.936073 12.873540 -10.543295
22.884466 12.684490 -10.505243
22.827541 12.502334 -10.452926
22.774965 12.316243 -10.407712
22.721857 12.129926 -10.364760
22.670692 11.947443 -10.303871
22.619560 11.763159 -10.246268
22.566935 11.578438 -10.209682
22.514118 11.392805 -10.137813
22.469673 11.224825 -10.053624
22.420853 11.052014 -9.965221
22.370289 10.882016 -9.874650
22.312836 10.706029 -9.803553
22.255543 10.533418 -9.719616
22.194305 10.362413 -9.636962
22.128866 10.191660 -9.556372
22.057144 10.014877 -9.493974
21.986380 9.843952 -9.415541
21.911665 9.671764 -9.345484
21.835388 9.499928 -9.279649
21.758467 9.328256 -9.211046
21.679255 9.155937 -9.155106
21.599600 8.986310 -9.079525
21.520763 8.824751 -8.994540
21.439049 8.662547 -8.909568
21.358547 8.495753 -8.836853
21.274389 8.321408 -8.783242
21.193537 8.147079 -8.729828
21.102571 7.982502 -8.662423
21.009830 7.823092 -8.589188
20.915976 7.659411 -8.522435
20.822512 7.495769 -8.459403
20.730280 7.331212 -8.394976
20.636189 7.166667 -8.332952
20.560671 6.982603 -8.293800
20.488153 6.796724 -8.257761
20.434044 6.608092 -8.234879
20.363045 6.423463 -8.186058
20.279648 6.250043 -8.133492
20.218512 6.066409 -8.085308
20.146221 5.888581 -8.032842
20.087799 5.702600 -7.985093
20.030365 5.515635 -7.945311
19.975662 5.328180 -7.905863
19.923658 5.138834 -7.874436
19.863142 4.952574 -7.828409
19.800421 4.769823 -7.779376
19.746239 4.580884 -7.742633
19.693855 4.390530 -7.709791
19.639164 4.203619 -7.667506
19.578806 4.018231 -7.620498
19.537086 3.826940 -7.596683
19.489628 3.637689 -7.567900
19.441711 3.450395 -7.539021
19.385181 3.265103 -7.504280
19.324284 3.085259 -7.463975
19.259602 2.905908 -7.425015
19.194265 2.728649 -7.383381
19.125940 2.556739 -7.320037
19.052729 2.386741 -7.249745
18.985134 2.225695 -7.159759
18.922709 2.059681 -7.071509
18.864983 1.886621 -6.994367
18.813749 1.711390 -6.912172
18.766636 1.532545 -6.837076
18.728182 1.351913 -6.757007
18.690643 1.162983 -6.706108
18.657745 0.974755 -6.647082
18.623955 0.790204 -6.580194
18.594194 0.605694 -6.518430
18.561117 0.420791 -6.445658
18.528547 0.247615 -6.354913
18.496851 0.073162 -6.264038
18.465717 -0.105308 -6.177288
18.436140 -0.286827 -6.099904
18.406399 -0.474018 -6.028539
18.376720 -0.666461 -5.978697
18.345083 -0.852582 -5.906983
18.311743 -1.041276 -5.848926
18.274878 -1.236637 -5.820974
18.231197 -1.427884 -5.777004
18.181231 -1.609851 -5.720291
18.123323 -1.791350 -5.672163
18.056583 -1.969367 -5.625145
17.982063 -2.146004 -5.572663
17.901037 -2.312073 -5.506967
17.816025 -2.480044 -5.447630
17.727749 -2.645724 -5.382582
17.641218 -2.810778 -5.314725
17.556145 -2.975620 -5.242704
17.474230 -3.142770 -5.171222
17.394871 -3.318161 -5.115856
17.319677 -3.485327 -5.032102
17.244755 -3.660291 -4.963812
17.175781 -3.838357 -4.906434
17.105307 -4.012260 -4.836814
17.036619 -4.190842 -4.780589
16.967701 -4.368779 -4.718971
16.897705 -4.541796 -4.650753
16.830236 -4.718678 -4.590183
16.762630 -4.892803 -4.518761
16.696253 -5.067089 -4.449579
16.633993 -5.247652 -4.393015
16.571144 -5.423445 -4.323671
16.513594 -5.605857 -4.267199
16.450520 -5.781299 -4.191747
16.390774 -5.953252 -4.113078
16.334061 -6.135234 -4.051192
16.277420 -6.318436 -3.995472
16.223715 -6.506032 -3.947103
16.168907 -6.691439 -3.901358
16.116814 -6.878984 -3.870597
16.059504 -7.068137 -3.832789
15.994554 -7.244078 -3.770397
15.927333 -7.421421 -3.717740
15.855042 -7.591940 -3.648059
15.781878 -7.764999 -3.589542
15.709990 -7.944203 -3.527385
15.629394 -8.103725 -3.444968
15.550991 -8.265988 -3.360485
15.477183 -8.437589 -3.291718
15.405546 -8.613973 -3.229420
15.335463 -8.782441 -3.143261
15.263838 -8.950976 -3.059886
15.201262 -9.126767 -2.989205
15.145376 -9.308682 -2.926852
15.084027 -9.484490 -2.853701
15.029054 -9.663973 -2.787783
14.967643 -9.841564 -2.710868
14.930120 -10.032418 -2.668877
14.880916 -10.217486 -2.606355
14.835203 -10.403889 -2.551589
14.794744 -10.594436 -2.501366
14.765717 -10.788638 -2.468094
14.735146 -10.987950 -2.431839
14.687407 -11.170069 -2.377856
14.637601 -11.351803 -2.316542
14.588157 -11.536844 -2.263290
14.537498 -11.721663 -2.212304
14.482234 -11.906409 -2.172590
14.428160 -12.091847 -2.133973
14.359971 -12.272227 -2.078324
14.292423 -12.443185 -2.010189
14.219313 -12.621077 -1.963126
14.145977 -12.798788 -1.907598
14.064273 -12.967031 -1.844982
13.983269 -13.139738 -1.786907
13.901340 -13.312394 -1.727432
13.817566 -13.483494 -1.666103
13.734452 -13.658044 -1.614709
13.650620 -13.832139 -1.558457
13.563803 -14.001563 -1.496946
13.475841 -14.173956 -1.447700
13.386673 -14.345854 -1.398104
13.294741 -14.516214 -1.351845
13.197692 -14.683021 -1.305060
13.097779 -14.849633 -1.267435
12.995528 -15.012368 -1.212555
12.886587 -15.166098 -1.151533
12.774858 -15.322896 -1.098059
12.662196 -15.478086 -1.045674
12.550575 -15.636369 -0.995930
12.438933 -15.797359 -0.956010
12.330552 -15.961177 -0.922241
12.222179 -16.124750 -0.888922
12.120012 -16.293701 -0.866623
12.009053 -16.455853 -0.828508
11.894863 -16.609711 -0.786982
11.780726 -16.760721 -0.731690
11.666202 -16.918087 -0.691240
11.540222 -17.054897 -0.624790
11.412708 -17.197741 -0.573457
11.284994 -17.340193 -0.526423
11.147525 -17.472343 -0.478111
11.007051 -17.599325 -0.422390
10.861133 -17.724751 -0.373181
10.715521 -17.843452 -0.309952
10.561234 -17.942696 -0.230131
10.408066 -18.055130 -0.178676
10.250988 -18.162243 -0.118048
10.092886 -18.266771 -0.061327
9.931646 -18.372189 -0.010353
9.768682 -18.483969 0.022654
9.601650 -18.576979 0.084438
9.433064 -18.674086 0.133272
9.263088 -18.772110 0.170328
9.090582 -18.869738 0.204859
8.917326 -18.962313 0.245362
8.743155 -19.053427 0.283630
8.569160 -19.149384 0.310594
8.394184 -19.244743 0.328507
8.218915 -19.337828 0.343910
8.043439 -19.431107 0.352916
7.861862 -19.505104 0.385324
7.679731 -19.574297 0.421278
7.496552 -19.636208 0.460560
7.309676 -19.695572 0.491278
7.121778 -19.750914 0.513875
6.930687 -19.803349 0.524649
6.742935 -19.853209 0.530963
6.545021 -19.888958 0.575179
6.356007 -19.917698 0.623507
6.162961 -19.946033 0.669915
5.969154 -19.974648 0.708334
5.774911 -19.999353 0.749751
5.579710 -20.024061 0.786504
5.383673 -20.050053 0.814669
5.187021 -20.072258 0.846739
4.990776 -20.093382 0.876130
4.793675 -20.115793 0.897869
4.596616 -20.137291 0.916663
4.399992 -20.154167 0.941284
4.204136 -20.168243 0.970057
4.009301 -20.178806 1.004960
3.815031 -20.184668 1.050594
3.625085 -20.184982 1.108249
3.435022 -20.182384 1.167631
3.241248 -20.181135 1.217092
3.049289 -20.175470 1.275120
2.855210 -20.170794 1.325519
2.658511 -20.169903 1.367250
2.460930 -20.169554 1.404207
2.263505 -20.168776 1.442826
2.064957 -20.171995 1.473028
1.867003 -20.171196 1.508561
1.668207 -20.173180 1.539054
1.470426 -20.175486 1.566395
1.271688 -20.181786 1.581315
1.073039 -20.189457 1.587551
0.877397 -20.186960 1.609697
0.683375 -20.181259 1.627153
0.489480 -20.170326 1.641758
0.298965 -20.143436 1.679106
0.114505 -20.106390 1.725312
-0.066429 -20.057930 1.789767
-0.239243 -19.998793 1.861805
-0.423083 -19.937111 1.914215
-0.615654 -19.891911 1.942569
-0.813329 -19.844698 1.953704
-1.010698 -19.809414 1.957417
-1.211477 -19.782873 1.931412
-1.406887 -19.757269 1.898455
-1.603896 -19.726820 1.872058
-1.797396 -19.694580 1.838928
-1.991953 -19.662859 1.807495
-2.184134 -19.616373 1.787654
-2.376398 -19.570789 1.768257
-2.568419 -19.521959 1.753137
-2.761053 -19.472530 1.739549
-2.953769 -19.418901 1.729787
-3.146986 -19.366816 1.726711
-3.341648 -19.316385 1.719718
-3.537882 -19.274799 1.706027
-3.735115 -19.237450 1.682982
-3.931487 -19.209129 1.649551
-4.127584 -19.183344 1.611826
-4.322648 -19.161203 1.569261
-4.516007 -19.141157 1.521427
-4.709091 -19.120432 1.474501
-4.901958 -19.097183 1.431173
-5.095098 -19.070730 1.390764
-5.287905 -19.035883 1.358016
-5.481126 -18.999561 1.329250
-5.674057 -18.958138 1.307388
-5.866494 -18.913881 1.285588
-6.057964 -18.868547 1.256811
-6.249241 -18.818184 1.234865
-6.439541 -18.765114 1.213914
-6.628633 -18.709641 1.189968
-6.816322 -18.648912 1.170048
-7.002409 -18.586039 1.146127
-7.187929 -18.517494 1.129367
-7.370660 -18.441420 1.119096
-7.551516 -18.358723 1.110562
-7.731209 -18.272585 1.106400
-7.909565 -18.182791 1.100238
-8.087791 -18.093115 1.086774
-8.266590 -18.003366 1.064956
-8.443403 -17.923306 1.020658
-8.616900 -17.840555 0.973185
-8.786159 -17.761719 0.917558
-8.959621 -17.658873 0.883356
-9.123972 -17.552889 0.885809
-9.286858 -17.439283 0.886794
-9.451029 -17.332485 0.861067
-9.616110 -17.229010 0.819578
-9.776875 -17.129045 0.763967
-9.939434 -17.022026 0.719634
-10.095302 -16.899841 0.692309
-10.248986 -16.777018 0.666110
-10.400680 -16.651854 0.637073
-10.551246 -16.529007 0.596333
-10.702997 -16.407192 0.547689
-10.846980 -16.273712 0.517188
-10.991333 -16.141888 0.480411
-11.135410 -16.009230 0.442930
-11.277026 -15.869528 0.414125
-11.417548 -15.731977 0.381165
-11.557607 -15.595301 0.344608
-11.697142 -15.460088 0.305335
-11.834466 -15.324730 0.259050
-11.967922 -15.183800 0.226561
-12.098615 -15.042034 0.191829
-12.221578 -14.886188 0.175949
-12.341357 -14.730441 0.162015
-12.459329 -14.573170 0.134937
-12.572041 -14.410967 0.116112
-12.682594 -14.247796 0.088197
-12.789662 -14.083866 0.052423
-12.893079 -13.916438 0.016411
-12.995002 -13.751079 -0.027910
-13.092870 -13.583280 -0.074011
-13.191409 -13.419342 -0.130334
-13.285440 -13.244799 -0.165605
-13.367073 -13.060742 -0.182267
-13.467962 -12.899748 -0.240632
-13.547705 -12.718355 -0.257422
-13.652143 -12.554972 -0.307151
-13.727222 -12.376672 -0.335256
-13.811049 -12.201263 -0.371401
-13.899072 -12.040414 -0.429780
-13.963898 -11.853657 -0.461733
-14.020468 -11.668565 -0.477511
-14.066873 -11.479109 -0.487613
-14.106545 -11.286738 -0.498250
-14.146857 -11.095695 -0.521126
-14.184133 -10.906459 -0.581001
-14.237053 -10.729591 -0.671636
-14.282146 -10.572385 -0.775612
-14.332562 -10.399462 -0.889969
-14.332422 -10.224084 -0.949475
-14.333586 -10.042274 -1.008387
-14.326619 -9.863008 -1.083935
-14.302411 -9.676023 -1.126161
-14.273976 -9.490496 -1.180631
-14.249950 -9.303621 -1.237810
-14.228817 -9.113184 -1.300886
-14.221684 -8.926938 -1.375967
-14.211583 -8.735446 -1.435851
-14.235332 -8.554405 -1.530008
-14.266681 -8.380831 -1.624549
-14.295272 -8.198515 -1.703714
-14.328392 -8.017667 -1.781352
-14.358756 -7.829418 -1.840413
-14.391438 -7.642817 -1.901721
-14.429245 -7.457892 -1.964258
-14.472427 -7.274741 -2.031620
-14.512557 -7.089547 -2.091214
-14.562882 -6.905418 -2.161335
-14.622004 -6.727760 -2.233084
-14.689988 -6.551173 -2.305040
-14.768429 -6.381769 -2.380084
-14.836803 -6.204868 -2.450331
-14.902443 -6.025747 -2.508627
-14.980925 -5.854213 -2.575784
-15.065439 -5.686612 -2.640894
-15.151645 -5.522119 -2.706836
-15.230006 -5.343303 -2.761114
-15.300369 -5.161969 -2.799363
-15.374235 -4.979629 -2.840874
-15.453248 -4.807540 -2.896909
-15.531929 -4.632341 -2.951939
-15.614906 -4.465234 -3.019127
-15.695007 -4.297563 -3.081603
-15.779733 -4.127557 -3.150000
-15.843238 -3.943468 -3.185758
-15.909505 -3.762066 -3.223041
-15.975502 -3.581285 -3.269096
-16.041401 -3.400311 -3.322786
-16.099564 -3.215094 -3.363068
-16.163017 -3.035251 -3.430446
-16.226446 -2.859956 -3.501401
-16.284388 -2.678957 -3.568579
-16.341618 -2.500924 -3.637047
-16.393736 -2.318191 -3.699417
-16.443285 -2.135327 -3.757998
-16.492125 -1.952079 -3.814602
-16.541876 -1.771014 -3.874196
-16.591991 -1.589775 -3.933023
-16.637802 -1.405206 -3.982447
-16.684761 -1.223980 -4.027806
-16.720659 -1.033083 -4.062113
-16.745190 -0.834993 -4.078412
-16.787973 -0.645693 -4.107680
-16.823982 -0.452319 -4.128410
-16.877453 -0.260073 -4.152972
-16.921257 -0.066905 -4.170417
-16.991400 0.124270 -4.184650
-17.068949 0.308864 -4.210135
-17.182959 0.478439 -4.241866
-17.292135 0.641939 -4.280597
-17.418694 0.793435 -4.327642
-17.519535 0.952928 -4.375316
-17.598110 1.125939 -4.410716
-17.666777 1.307691 -4.443785
-17.718536 1.489608 -4.477381
-17.754820 1.678679 -4.499373
-17.776247 1.871717 -4.520203
-17.795177 2.067633 -4.553570
-17.802174 2.264199 -4.585546
-17.808477 2.464491 -4.626564
-17.815538 2.654605 -4.695144
-17.834013 2.834647 -4.788821
-17.850317 3.001250 -4.897368
-17.861839 3.176108 -4.992173
-17.872633 3.343028 -5.098006
-17.878557 3.522947 -5.178880
-17.874628 3.701213 -5.257251
-17.867393 3.890204 -5.320204
-17.857027 4.075452 -5.382070
-17.845898 4.259924 -5.448565
-17.834318 4.442828 -5.516950
-17.822411 4.628124 -5.580930
-17.801544 4.816681 -5.630916
-17.767561 5.008149 -5.658427
-17.737225 5.201664 -5.676250
-17.692976 5.397999 -5.688285
-17.636435 5.585703 -5.687472
-17.594685 5.785255 -5.704055
-17.578419 5.981628 -5.724115
-17.547989 6.182793 -5.745103
-17.531601 6.380111 -5.766110
-17.518074 6.581925 -5.793817
-17.538942 6.778059 -5.849306
-17.567907 6.973081 -5.901638
-17.588110 7.169404 -5.952836
-17.612970 7.365589 -5.998152
-17.662668 7.551208 -6.057397
-17.721355 7.737297 -6.113792
-17.734974 7.934282 -6.154624
-17.765623 8.126706 -6.196263
-17.806089 8.315780 -6.243666
-17.843256 8.505344 -6.291772
-17.869297 8.698355 -6.329597
-17.897696 8.890341 -6.375802
-17.944698 9.077662 -6.431687
-17.964401 9.269997 -6.477168
-18.000662 9.461315 -6.534636
-18.013828 9.655869 -6.572610
-18.040134 9.849941 -6.620320
-18.068415 10.043640 -6.664831
-18.106068 10.236099 -6.713799
-18.141083 10.432672 -6.753941
-18.174753 10.630216 -6.793941
-18.239988 10.820881 -6.835366
-18.318462 11.003831 -6.883376
-18.400696 11.182343 -6.928658
-18.490316 11.356318 -6.974173
-18.586405 11.520637 -7.022432
-18.670923 11.692567 -7.061650
-18.763714 11.859770 -7.106894
-18.833536 12.037159 -7.131096
-18.894585 12.225445 -7.151920
-18.949989 12.409451 -7.158962
-19.000206 12.598276 -7.160337
-19.048647 12.788056 -7.158842
-19.090422 12.981637 -7.145724
-19.125967 13.173865 -7.118139
-19.157694 13.367307 -7.083964
-19.188858 13.562922 -7.051811
-19.224392 13.759951 -7.037078
-19.261932 13.959900 -7.051924
-19.304667 14.154260 -7.081219
-19.347963 14.347875 -7.123267
-19.392550 14.540170 -7.165670
-19.431925 14.736979 -7.192807
-19.473896 14.931818 -7.227464
-19.518366 15.119648 -7.282789
-19.563721 15.304196 -7.343070
-19.610117 15.482330 -7.415604
-19.656086 15.656160 -7.491471
-19.699110 15.833368 -7.559759
-19.733160 16.016407 -7.614566
-19.759609 16.202913 -7.651511
-19.774881 16.397316 -7.677093
-19.737411 16.589668 -7.686493
-19.709366 16.781969 -7.688357
-19.684275 16.980955 -7.705130
-19.680588 17.179279 -7.736943
-19.685745 17.377865 -7.765776
-19.697433 17.580500 -7.796228
-19.712156 17.780222 -7.823688
-19.750166 17.981504 -7.854203
-19.785667 18.180796 -7.883409
-19.825617 18.378719 -7.912111
-19.882599 18.571789 -7.946271
-19.953382 18.755396 -7.984438
-20.014074 18.945211 -8.017597
-20.078844 19.130341 -8.051661
-20.136925 19.321306 -8.075918
-20.200764 19.509415 -8.104552
-20.285803 19.690163 -8.138968
-20.374861 19.864388 -8.173300
-20.465572 20.044935 -8.203717
-20.528906 20.231377 -8.229266
-20.606524 20.417812 -8.251442
-20.695337 20.583961 -8.300383
-20.791132 20.749121 -8.350063
-20.857327 20.922972 -8.395467
-20.934752 21.086195 -8.462248
-21.005985 21.250128 -8.536454
-21.048071 21.430840 -8.583281
-21.085037 21.611307 -8.622849
-21.106157 21.804501 -8.644135
-21.126097 21.996744 -8.648361
-21.138229 22.191938 -8.641437
-21.147745 22.387810 -8.625370
-21.153463 22.585550 -8.607591
-21.157310 22.784359 -8.593741
-21.160683 22.984982 -8.585521
-21.164707 23.185991 -8.592295
-21.165911 23.387192 -8.597679
-21.164625 23.588350 -8.609527
-21.159513 23.788769 -8.625313
-21.149254 23.987843 -8.653530
-21.135578 24.184042 -8.694264
-21.115456 24.377722 -8.741080
-21.088690 24.573090 -8.777419
-21.056997 24.767500 -8.808017
-21.020929 24.959805 -8.850535
-20.982307 25.150587 -8.896929
-20.942425 25.341602 -8.940995
-20.904099 25.531511 -8.992496
-20.867260 25.719728 -9.050671
-20.833929 25.905972 -9.116551
-20.804077 26.091978 -9.184318
-20.778503 26.276169 -9.257271
-20.757509 26.459196 -9.333934
-20.742073 26.642876 -9.407699
-20.730097 26.828856 -9.478617
-20.724379 27.016644 -9.534388
-20.724422 27.202702 -9.595357
-20.735659 27.383902 -9.668614
-20.742678 27.563622 -9.725756
-20.766518 27.756544 -9.758643
-20.758129 27.953478 -9.772433
-20.745176 28.145144 -9.760880
-20.741621 28.341669 -9.766139
-20.756598 28.540972 -9.772223
-20.754545 28.743135 -9.771335
-20.772034 28.945826 -9.770096
-20.813293 29.143242 -9.786874
-20.843479 29.345947 -9.786740
-20.909477 29.540823 -9.804884
-20.987484 29.724335 -9.823215
-21.047880 29.919950 -9.826966
-21.137522 30.102907 -9.841072
-21.226730 30.282648 -9.848614
-21.319817 30.462524 -9.850342
-21.417631 30.639738 -9.849567
-21.519352 30.814491 -9.845559
-21.623484 30.987978 -9.837634
-21.741407 31.155832 -9.835274
-21.870281 31.313509 -9.838926
-22.006182 31.467274 -9.844133
-22.143078 31.615780 -9.850035
-22.293982 31.755035 -9.860689
-22.429111 31.904440 -9.860990
-22.594007 32.030602 -9.875103
-22.767536 32.141144 -9.897374
-22.948509 32.237198 -9.924647
-23.131809 32.321735 -9.952834
-23.323723 32.391251 -10.002321
-23.513584 32.433971 -10.069243
-23.704811 32.476784 -10.135752
-23.895767 32.524456 -10.198845
-24.085140 32.547962 -10.278688
-24.279627 32.578175 -10.351400
-24.473095 32.578957 -10.428195
-24.659977 32.571751 -10.503910
-24.846264 32.542641 -10.584470
-25.021847 32.489616 -10.669867
-25.210804 32.471279 -10.736019
-25.383320 32.405941 -10.814809
-25.571663 32.375824 -10.884484
-25.755257 32.325104 -10.953377
-25.932016 32.267410 -11.023039
-26.113958 32.209778 -11.087620
-26.279491 32.126484 -11.154269
-26.465124 32.068069 -11.214973
-26.647083 32.011265 -11.268916
-26.827688 31.957563 -11.322782
-27.006735 31.881643 -11.368532
-27.191280 31.833893 -11.420761
-27.380747 31.785734 -11.461066
-27.567877 31.746838 -11.501041
-27.761034 31.709677 -11.542994
-27.958351 31.691290 -11.581506
-28.152250 31.656969 -11.619507
-28.339760 31.604261 -11.661545
-28.541306 31.581343 -11.707450
-28.740488 31.553343 -11.746191
-28.924959 31.486103 -11.806007
-29.102242 31.404161 -11.860477
-29.286303 31.334248 -11.908659
-29.454741 31.225857 -11.970423
-29.617336 31.109085 -12.013284
-29.782867 30.988510 -12.064391
-29.924673 30.846045 -12.102291
-30.060984 30.692945 -12.144961
-30.169336 30.521992 -12.185160
-30.291420 30.358585 -12.223660
-30.416407 30.198296 -12.256581
-30.518358 30.026552 -12.295156
-30.607458 29.845381 -12.339637
-30.679663 29.662128 -12.384615
-30.747139 29.478670 -12.430544
-30.835546 29.298613 -12.470775
-30.920214 29.120348 -12.509836
-31.003338 28.942015 -12.544906
-31.076262 28.758268 -12.578465
-31.129747 28.565676 -12.605206
-31.182562 28.375624 -12.630066
-31.241108 28.185623 -12.641706
-31.318863 28.007164 -12.654508
-31.405714 27.829290 -12.660819
-31.496878 27.656710 -12.657328
-31.569914 27.472967 -12.646792
-31.630688 27.289421 -12.629602
-31.712805 27.098818 -12.605109
-31.827909 26.952587 -12.584408
-31.914497 26.774933 -12.552245
-32.033134 26.620546 -12.516678
-32.138973 26.454687 -12.473146
-32.235886 26.284674 -12.428505
-32.327564 26.109488 -12.376334
-32.431320 25.942158 -12.322728
-32.517738 25.766552 -12.263786
-32.589218 25.584702 -12.199012
-32.645744 25.398243 -12.130077
-32.697330 25.210316 -12.063192
-32.745598 25.023188 -11.993072
-32.783222 24.828526 -11.920069
-32.788528 24.634533 -11.855582
-32.779991 24.436970 -11.785262
-32.746468 24.245754 -11.721406
-32.713394 24.053984 -11.652646
-32.665264 23.869110 -11.584268
-32.610363 23.682001 -11.519498
-32.541397 23.500778 -11.452958
-32.444946 23.326616 -11.398016
-32.358150 23.149681 -11.336923
-32.277344 22.973326 -11.272309
-32.158569 22.807467 -11.218669
-32.032410 22.651703 -11.170170
-31.893076 22.505013 -11.118293
-31.747927 22.370878 -11.076468
-31.591778 22.255625 -11.035501
-31.433044 22.159792 -11.015710
-31.272118 22.082863 -11.004355
-31.134048 22.007011 -11.014344
-30.991606 21.903564 -10.994474
-30.983681 21.739290 -10.940739
-30.986670 21.611128 -10.871741
-31.026268 21.470102 -10.792627
-31.081985 21.327648 -10.718503
-31.138533 21.164570 -10.652817
-31.194757 20.994724 -10.590483
-31.255548 20.816584 -10.526219
-31.311859 20.631252 -10.460446
-31.392937 20.458689 -10.385442
-31.435902 20.267944 -10.320289
-31.453665 20.076139 -10.261626
-31.489584 19.887007 -10.194973
-31.511209 19.697229 -10.131628
-31.534260 19.509377 -10.066669
-31.562403 19.321568 -10.000473
-31.586615 19.135159 -9.936383
-31.603014 18.947073 -9.870547
-31.624260 18.760672 -9.806305
-31.617584 18.566486 -9.748734
-31.644159 18.381680 -9.678131
-31.681732 18.200642 -9.606296
-31.715395 18.015440 -9.536756
-31.759832 17.833544 -9.466078
-31.784319 17.647322 -9.399487
-31.815250 17.460524 -9.329228
-31.845413 17.274145 -9.262857
-31.858463 17.084257 -9.194462
-31.865023 16.894585 -9.133754
-31.883390 16.701395 -9.060038
-31.926094 16.520308 -8.986240
-31.943102 16.333019 -8.913476
-31.953005 16.144560 -8.848862
-31.959888 15.958333 -8.779500
-31.956030 15.765856 -8.714373
-31.985270 15.583785 -8.636696
-32.005669 15.399349 -8.559379
-31.985754 15.201900 -8.499752
-31.987253 15.008177 -8.426054
-31.975664 14.815361 -8.362304
-32.000381 14.623177 -8.282817
-31.970280 14.432157 -8.221437
-31.949066 14.241356 -8.155224
-31.920958 14.052465 -8.089501
-31.891054 13.862744 -8.021553
-31.839323 13.676821 -7.956111
-31.781040 13.491718 -7.885881
-31.697113 13.308938 -7.835606
-31.619539 13.131409 -7.769701
-31.522268 12.953123 -7.716177
-31.425718 12.784935 -7.657981
-31.314480 12.608208 -7.604118
-31.190899 12.455905 -7.556118
-31.059849 12.302488 -7.512429
-30.916101 12.160929 -7.469890
-30.773373 12.026237 -7.420824
-30.611195 11.895656 -7.390298
-30.436741 11.786976 -7.362718
-30.252575 11.692933 -7.341687
-30.065456 11.610046 -7.335541
-29.873146 11.540197 -7.325067
-29.680317 11.486295 -7.317717
-29.492914 11.434112 -7.310088
-29.316780 11.365050 -7.289833
-29.142820 11.313215 -7.284758
-28.991928 11.240761 -7.288587
-28.870674 11.152029 -7.280891
-28.776850 11.036535 -7.268642
-28.730965 10.919467 -7.246558
-28.715506 10.779658 -7.168215
-28.751905 10.644309 -7.083096
-28.809145 10.503680 -6.999271
-28.866776 10.341332 -6.926810
-28.926855 10.169541 -6.857171
-28.973789 9.987245 -6.792756
-29.028170 9.805454 -6.724506
-29.078838 9.621771 -6.651233
-29.108044 9.430779 -6.594162
-29.144337 9.243558 -6.524597
-29.175186 9.056127 -6.461747
-29.185608 8.864877 -6.400425
-29.200283 8.675036 -6.337861
-29.208296 8.484694 -6.277746
-29.224197 8.300287 -6.209570
-29.245705 8.113488 -6.143780
-29.260862 7.927982 -6.076434
-29.303265 7.747826 -6.008747
-29.339340 7.568124 -5.939993
-29.371742 7.384713 -5.873137
-29.419506 7.207521 -5.803381
-29.463865 7.027911 -5.734686
-29.520561 6.851688 -5.661968
-29.572048 6.672317 -5.591075
-29.614975 6.489482 -5.522562
-29.666700 6.308907 -5.448062
-29.700310 6.121943 -5.381538
-29.748581 5.941710 -5.306893
-29.784830 5.753763 -5.238121
-29.814243 5.568587 -5.165881
-29.852091 5.380322 -5.093024
-29.856207 5.189048 -5.028058
-29.864340 4.996419 -4.958436
-29.873333 4.805644 -4.885317
-29.874620 4.616087 -4.809928
-29.862001 4.422354 -4.737899
-29.818336 4.226332 -4.670652
-29.766525 4.038845 -4.607613
-29.692163 3.848814 -4.542508
-29.597343 3.673992 -4.498487
-29.485592 3.502779 -4.452703
-29.386265 3.335218 -4.394254
-29.260439 3.169178 -4.351314
-29.112270 3.032626 -4.315538
-28.970978 2.876662 -4.262081
-28.808357 2.761667 -4.245996
-28.630026 2.651176 -4.215694
-28.446407 2.553980 -4.203067
-28.266167 2.461329 -4.181993
-28.066717 2.378912 -4.166486
-27.865513 2.349046 -4.170534
-27.664671 2.329760 -4.180564
-27.466047 2.309824 -4.188150
-27.269274 2.279146 -4.192998
-27.074583 2.242322 -4.191956
-26.883440 2.193351 -4.184397
-26.693264 2.144774 -4.175991
-26.504110 2.092494 -4.165419
-26.316051 2.042819 -4.161448
-26.137968 1.976980 -4.148132
-25.957085 1.917102 -4.151257
-25.798052 1.844299 -4.130724
-25.661524 1.740483 -4.124022
-25.552031 1.620520 -4.105620
-25.467041 1.496724 -4.070344
-25.415661 1.343135 -4.020466
-25.421041 1.205729 -3.948500
-25.437399 1.053492 -3.877829
-25.484158 0.898098 -3.805142
-25.550640 0.746541 -3.725269
-25.622396 0.583658 -3.655473
-25.699978 0.419459 -3.588480
-25.781048 0.251770 -3.525633
-25.856388 0.077272 -3.468801
-25.962959 -0.079881 -3.400191
-26.078606 -0.224257 -3.328570
-26.191351 -0.374612 -3.257896
-26.299721 -0.532218 -3.190818
-26.386774 -0.705175 -3.127132
-26.500002 -0.860940 -3.051233
-26.579983 -1.041392 -2.983906
-26.637899 -1.228658 -2.921526
-26.684032 -1.417570 -2.851189
-26.723707 -1.609906 -2.785829
-26.732027 -1.807061 -2.720818
-26.724932 -2.004299 -2.655743
-26.699184 -2.199553 -2.599979
-26.649248 -2.397507 -2.542585
-26.602667 -2.583265 -2.488279
-26.521477 -2.778501 -2.433457
-26.421553 -2.950519 -2.400933
-26.317608 -3.122010 -2.352837
-26.203548 -3.291056 -2.314977
-26.086655 -3.445942 -2.263563
-25.930891 -3.598099 -2.239801
-25.779221 -3.735198 -2.209301
-25.621561 -3.873868 -2.176409
-25.441965 -3.980043 -2.165460
-25.261467 -4.078377 -2.156070
-25.068649 -4.156635 -2.161194
-24.877926 -4.224830 -2.167339
-24.682865 -4.276445 -2.176249
-24.487103 -4.329134 -2.183219
-24.300777 -4.406187 -2.172140
-24.115900 -4.471473 -2.159274
-23.931396 -4.549320 -2.142874
-23.758133 -4.637717 -2.102885
-23.581316 -4.712220 -2.093112
-23.418814 -4.782675 -2.107821
-23.266531 -4.858901 -2.115865
-23.147736 -4.974815 -2.119409
-23.058399 -5.103585 -2.077239
-23.017048 -5.224866 -2.023993
-22.992229 -5.366810 -1.958993
-23.020071 -5.516507 -1.880782
-23.072718 -5.664455 -1.805093
-23.136688 -5.829069 -1.737389
-23.220371 -5.985467 -1.657470
-23.304811 -6.152255 -1.585646
-23.368864 -6.330742 -1.521271
-23.436176 -6.507105 -1.451739
-23.488430 -6.694428 -1.390128
-23.524429 -6.883223 -1.329808
-23.578531 -7.064849 -1.262632
-23.614410 -7.253797 -1.200609
-23.646173 -7.444438 -1.139610
-23.684896 -7.629038 -1.069345
-23.717371 -7.818607 -1.002670
-23.751255 -8.005107 -0.929309
-23.784735 -8.198543 -0.854194
-23.790312 -8.391440 -0.783592
-23.789558 -8.584510 -0.706888
-23.766600 -8.781556 -0.645234
-23.725458 -8.972859 -0.580148
-23.686111 -9.163855 -0.509482
-23.623573 -9.350945 -0.452844
-23.558474 -9.533755 -0.387933
-23.483690 -9.717361 -0.323341
-23.398951 -9.893238 -0.271229
-23.301445 -10.069948 -0.219413
-23.192438 -10.232190 -0.173666
-23.072540 -10.400955 -0.125427
-22.950996 -10.541090 -0.075932
-22.787497 -10.687944 -0.042525
-22.636862 -10.820026 -0.004045
-22.456648 -10.933266 0.020285
-22.282843 -11.041500 0.052588
-22.105040 -11.149032 0.087729
-21.917612 -11.233823 0.114242
-21.729429 -11.303072 0.127724
-21.548155 -11.356905 0.123894
-21.381245 -11.394452 0.098428
-21.241669 -11.440049 0.070914
-21.135334 -11.571395 0.066415
-21.063679 -11.683589 0.120098
-21.065859 -11.802251 0.205370
-21.102184 -11.920512 0.289575
-21.145103 -12.073308 0.359135
-21.179354 -12.238853 0.428741
-21.220718 -12.416762 0.495646
-21.254704 -12.600941 0.560083
-21.300594 -12.782723 0.629871
-21.338825 -12.966595 0.698175
-21.378550 -13.149652 0.765124
-21.422695 -13.329228 0.834618
-21.464249 -13.510384 0.900938
-21.515001 -13.689234 0.973768
-21.568661 -13.866176 1.043283
-21.603960 -14.051831 1.109132
-21.670774 -14.227441 1.184713
-21.720732 -14.411584 1.250760
-21.762091 -14.598253 1.314817
-21.806612 -14.787880 1.386419
-21.829090 -14.981327 1.453569
-21.829628 -15.176027 1.516530
-21.830479 -15.367887 1.589049
-21.850382 -15.557796 1.668642
-21.846073 -15.745978 1.751976
-21.799494 -15.942739 1.798271
-21.776897 -16.133486 1.866944
-21.744177 -16.327091 1.930512
-21.686953 -16.513159 1.984115
-21.660351 -16.706261 2.060457
-21.602430 -16.890015 2.113607
-21.533125 -17.076567 2.170663
-21.465654 -17.260630 2.230312
-21.376143 -17.443077 2.281550
-21.285776 -17.618227 2.327354
-21.190722 -17.795677 2.376921
-21.106930 -17.972698 2.436036
-20.992373 -18.140858 2.480701
-20.868996 -18.301168 2.527251
-20.730511 -18.449911 2.556821
-20.580582 -18.599140 2.598175
-20.425291 -18.721682 2.620061
-20.255339 -18.843172 2.636322
-20.076471 -18.939817 2.649100
-19.889925 -19.030567 2.650080
-19.688303 -19.094351 2.640868
-19.476318 -19.114555 2.599563
-19.271864 -19.128326 2.572337
-19.067390 -19.113216 2.529309
-18.867937 -19.086390 2.491824
-18.667807 -19.033947 2.458692
-18.466951 -18.981720 2.430973
-18.291414 -18.899830 2.397316
-18.128336 -18.799505 2.346694
-17.960941 -18.713455 2.316827
-17.806753 -18.642527 2.286130
-17.666595 -18.590199 2.248856
-17.539982 -18.577236 2.207606
-17.433905 -18.586861 2.194491
-17.338083 -18.652046 2.202920
-17.259335 -18.741127 2.252924
-17.227446 -18.867702 2.316669
-17.235464 -19.004515 2.393030
-17.231224 -19.177160 2.451619
-17.195772 -19.357065 2.501626
-17.211716 -19.547728 2.568906
-17.176289 -19.736856 2.618936
-17.143864 -19.935265 2.674104
-17.158243 -20.124397 2.750830
-17.128904 -20.317904 2.804639
-17.071796 -20.501038 2.865267
-17.013981 -20.685703 2.924082
-16.953770 -20.868750 2.987933
-16.873539 -21.044861 3.052483
-16.787188 -21.222786 3.118546
-16.682987 -21.387173 3.181919
-16.566704 -21.549597 3.239572
-16.431095 -21.698267 3.288307
-16.297668 -21.844307 3.337773
-16.147190 -21.980911 3.384669
-15.979712 -22.096968 3.415707
-15.824548 -22.222389 3.462694
-15.651767 -22.334614 3.491671
-15.484016 -22.443420 3.523578
-15.303980 -22.543505 3.545403
-15.118008 -22.623804 3.562578
-14.930009 -22.703394 3.579974
-14.741427 -22.774204 3.596051
-14.545626 -22.832909 3.603853
-14.356176 -22.897240 3.620210
-14.158149 -22.952190 3.631714
-13.952994 -22.970806 3.622719
-13.750923 -23.005621 3.624756
-13.547003 -23.031525 3.624496
-13.342134 -23.058300 3.628253
-13.140507 -23.091192 3.640453
-12.925682 -23.090067 3.628673
-12.724380 -23.083252 3.614010
-12.515416 -23.056814 3.586944
-12.321924 -23.003345 3.552634
-12.132388 -22.940754 3.517983
-11.955528 -22.877773 3.484050
-11.787963 -22.788641 3.440787
-11.669919 -22.702620 3.380279
-11.553703 -22.659853 3.322545
-11.415112 -22.670809 3.277849
-11.312188 -22.696203 3.296104
-11.250253 -22.763514 3.324463
-11.200294 -22.856499 3.401772
-11.184633 -22.988316 3.466545
-11.181889 -23.132305 3.525208
-11.170702 -23.303322 3.585499
-11.165486 -23.481686 3.647914
-11.151149 -23.674181 3.712498
-11.116086 -23.860437 3.781610
-11.058264 -24.049026 3.843800
-10.981748 -24.231127 3.907447
-10.888212 -24.408464 3.965856
-10.809721 -24.583775 4.038670
-10.712595 -24.758890 4.101782
-10.587121 -24.913607 4.153751
-10.461470 -25.070631 4.207306
-10.316977 -25.216028 4.251939
-10.165399 -25.342657 4.293645
-10.010258 -25.474346 4.336980
-9.848075 -25.583851 4.379988
-9.672113 -25.695364 4.401994
-9.493469 -25.781403 4.431317
-9.311178 -25.879742 4.456567
-9.151156 -25.987080 4.503286
-8.955384 -26.070202 4.522408
-8.764472 -26.131227 4.518426
-8.572257 -26.204506 4.529020
-8.384574 -26.273647 4.538796
-8.200032 -26.357157 4.560372
-8.019888 -26.439936 4.582964
-7.832689 -26.511847 4.598310
-7.639695 -26.570814 4.611150
-7.455638 -26.641518 4.630898
-7.273910 -26.721497 4.660291
-7.084223 -26.772921 4.669284
-6.898545 -26.860300 4.702811
-6.712631 -26.936184 4.731869
-6.519846 -26.998180 4.733373
-6.323512 -27.049173 4.737288
-6.127749 -27.103144 4.738842
-5.932695 -27.153599 4.742192
-5.739511 -27.209101 4.748555
-5.539500 -27.248150 4.747574
-5.341585 -27.293591 4.754555
-5.143044 -27.335773 4.758152
-4.936547 -27.347826 4.756985
-4.729673 -27.340467 4.740108
-4.523398 -27.342888 4.732353
-4.315049 -27.338148 4.725341
-4.112745 -27.314648 4.708690
-3.908895 -27.274517 4.683352
-3.712295 -27.230040 4.649788
-3.527746 -27.151793 4.608954
-3.338205 -27.082489 4.572538
-3.145543 -27.026674 4.545935
-2.963063 -26.938646 4.503937
-2.784110 -26.844620 4.458315
-2.609300 -26.746181 4.412297
-2.439090 -26.636469 4.367360
-2.279845 -26.517521 4.317246
-2.131570 -26.385818 4.268441
-1.985776 -26.259069 4.222996
-1.852713 -26.126047 4.175263
-1.718950 -26.002966 4.137668
-1.594141 -25.891479 4.098274
-1.497114 -25.787994 4.052961
-1.391926 -25.712761 4.009482
-1.306175 -25.672218 3.970554
-1.204049 -25.681734 3.945930
-1.104528 -25.734444 3.966080
-1.040334 -25.819735 4.010102
-0.976773 -25.936958 4.068925
-0.940521 -26.087166 4.127761
-0.887803 -26.248343 4.192922
-0.804406 -26.412724 4.241730
-0.700947 -26.575697 4.290119
-0.592304 -26.736389 4.342257
-0.476305 -26.901440 4.391541
-0.345967 -27.051155 4.444345
-0.199219 -27.196520 4.483044
-0.042327 -27.326830 4.517730
0.119466 -27.451262 4.548220
0.280261 -27.576715 4.586181
0.444428 -27.694454 4.621541
0.616964 -27.805698 4.661129
0.801244 -27.890579 4.684194
0.992353 -27.966419 4.702020
1.185965 -28.030512 4.714004
1.382623 -28.086300 4.722106
1.580387 -28.134974 4.728859
1.776208 -28.186119 4.738321
1.974876 -28.221678 4.737819
2.173034 -28.258520 4.740548
2.370689 -28.299547 4.744449
2.566985 -28.338732 4.749194
2.764651 -28.375046 4.751721
2.964717 -28.408300 4.755906
3.161456 -28.447830 4.759429
3.363388 -28.467762 4.762247
3.560913 -28.466463 4.742312
3.766737 -28.467501 4.742409
3.962057 -28.506250 4.740851
4.159146 -28.532063 4.743140
4.358191 -28.558817 4.744260
4.555861 -28.598017 4.750085
4.754678 -28.628515 4.757983
4.956544 -28.647331 4.752270
5.158396 -28.657583 4.747038
5.362916 -28.662785 4.742844
5.564741 -28.688684 4.742911
5.768853 -28.698151 4.750691
5.974225 -28.689697 4.732199
6.176786 -28.677414 4.721443
6.383480 -28.660801 4.695440
6.577287 -28.613333 4.669456
6.779883 -28.553932 4.629659
6.969728 -28.488930 4.593480
7.175567 -28.418894 4.566091
7.344012 -28.328777 4.512227
7.517918 -28.222231 4.466208
7.691442 -28.130497 4.421123
7.858387 -28.009335 4.374912
7.999307 -27.876350 4.312551
8.142296 -27.736502 4.252220
8.267307 -27.584513 4.188687
8.378499 -27.423519 4.119987
8.495385 -27.264559 4.059127
8.586986 -27.094940 3.992709
8.649952 -26.913847 3.920152
8.742312 -26.741489 3.859027
8.817077 -26.561672 3.798499
8.903611 -26.386074 3.748741
8.967851 -26.199589 3.695948
9.003357 -26.008337 3.642591
9.034397 -25.822107 3.593407
9.080664 -25.651884 3.543188
9.118571 -25.493273 3.489943
9.155464 -25.357775 3.424202
9.234086 -25.254034 3.351280
9.364517 -25.192421 3.309679
9.523149 -25.153318 3.322388
9.674309 -25.191410 3.333251
9.841097 -25.260139 3.352394
10.010893 -25.338305 3.356386
10.198621 -25.398638 3.350523
10.403032 -25.414391 3.332934
10.606304 -25.434130 3.317968
10.809542 -25.449516 3.303670
11.014344 -25.457788 3.302320
11.220862 -25.439098 3.282097
11.425565 -25.443726 3.277612
11.638442 -25.447029 3.286003
11.832473 -25.412231 3.253216
12.037021 -25.389696 3.239988
12.231303 -25.342766 3.209216
12.427348 -25.297499 3.189007
12.625251 -25.243048 3.159948
12.812766 -25.178335 3.141274
12.999057 -25.082975 3.084434
13.164880 -24.977489 3.031828
13.330038 -24.864929 2.973518
13.505898 -24.766468 2.937918
13.653561 -24.637171 2.878492
13.820594 -24.531254 2.836104
13.972964 -24.400238 2.790849
14.104579 -24.256668 2.727482
14.239200 -24.113804 2.668007
14.377298 -23.967461 2.619662
14.493876 -23.814068 2.550215
14.610385 -23.655622 2.490489
14.717412 -23.493963 2.432690
14.812437 -23.319548 2.373051
14.913616 -23.148836 2.314506
14.985181 -22.964142 2.258314
15.039767 -22.773920 2.189810
15.064083 -22.575872 2.124193
15.070241 -22.380657 2.033679
15.033641 -22.206577 1.949183
14.985465 -22.032738 1.861510
14.942079 -21.866726 1.777910
14.924127 -21.719358 1.699238
14.910975 -21.586273 1.619716
14.945961 -21.469286 1.542794
15.037393 -21.367821 1.493558
15.162105 -21.307503 1.466828
15.301641 -21.298374 1.475942
15.447251 -21.329506 1.514482
15.611344 -21.400204 1.548612
15.768217 -21.493868 1.572750
15.936506 -21.582472 1.587091
16.099646 -21.690777 1.613059
16.262140 -21.804598 1.631324
16.417646 -21.930025 1.658390
16.575171 -22.054609 1.682242
16.746473 -22.166203 1.706295
16.928457 -22.266314 1.717623
17.112427 -22.364510 1.731930
17.310463 -22.438507 1.745406
17.509365 -22.514473 1.748430
17.718195 -22.539576 1.754960
17.924355 -22.544304 1.749716
18.132656 -22.543934 1.745796
18.349710 -22.534151 1.756158
18.546185 -22.489750 1.734283
18.743338 -22.424908 1.722671
18.944242 -22.355108 1.710348
19.135813 -22.275928 1.692220
19.318834 -22.181574 1.670627
19.494028 -22.069283 1.632824
19.652441 -21.946486 1.588423
19.814241 -21.817928 1.543690
19.939707 -21.676237 1.478397
20.100100 -21.554554 1.432354
20.238321 -21.411114 1.383782
20.350889 -21.255177 1.307916
20.462000 -21.095779 1.245471
20.563143 -20.930187 1.181263
20.662888 -20.758612 1.113237
20.763075 -20.592707 1.068471
20.848637 -20.419464 1.007070
20.897999 -20.236286 0.927334
20.983210 -20.057774 0.865676
21.056467 -19.881569 0.818159
21.115919 -19.695986 0.765670
21.181303 -19.509747 0.715263
21.221678 -19.314798 0.670488
21.239811 -19.121635 0.600523
21.243587 -18.928354 0.535141
21.258066 -18.731829 0.480566
21.256128 -18.538525 0.425787
21.241163 -18.341434 0.368911
21.221724 -18.149918 0.320371
21.194021 -17.958612 0.259253
21.151697 -17.778973 0.191045
21.113253 -17.602594 0.120152
21.083145 -17.443157 0.037312
21.072685 -17.279272 -0.039088
21.089382 -17.111364 -0.094083
21.133129 -16.943153 -0.130425
21.200787 -16.778513 -0.141882
21.286406 -16.615511 -0.148175
21.378891 -16.448313 -0.169474
21.470177 -16.281837 -0.196158
21.558611 -16.113726 -0.257673
21.641422 -15.951891 -0.324328
21.731527 -15.795965 -0.395961
21.815977 -15.651127 -0.476868
21.905605 -15.527766 -0.567168
22.039238 -15.385653 -0.606377
22.178690 -15.272245 -0.619365
22.331505 -15.168654 -0.627965
22.487137 -15.059937 -0.648105
22.656103 -14.960054 -0.673189
22.830717 -14.855446 -0.690715
22.993139 -14.749128 -0.723983
23.140970 -14.603086 -0.780538
23.284384 -14.469766 -0.822057
23.421074 -14.314063 -0.875565
23.533262 -14.151681 -0.927059
23.643862 -13.981574 -0.976207
23.763626 -13.815834 -1.017512
23.860008 -13.637428 -1.060634
23.941538 -13.463413 -1.121395
23.996866 -13.275752 -1.186063
24.072929 -13.093583 -1.238172
24.116627 -12.904192 -1.302634
24.163839 -12.713517 -1.361330
24.212339 -12.520320 -1.414880
24.228445 -12.323811 -1.482048
24.242964 -12.131600 -1.544399
24.223068 -11.929029 -1.605623
24.190992 -11.736652 -1.672602
24.145201 -11.543280 -1.733342
24.105892 -11.348848 -1.787137
24.034527 -11.169421 -1.848928
23.959126 -10.992815 -1.905822
23.891768 -10.809506 -1.955709
23.794519 -10.655286 -2.017200
23.714838 -10.470305 -2.066731
23.662539 -10.282613 -2.113686
23.596472 -10.101241 -2.166451
23.534880 -9.920600 -2.221750
23.461834 -9.756899 -2.290590
23.409031 -9.587252 -2.357862
23.347252 -9.442498 -2.438238
23.318222 -9.299681 -2.527678
23.316856 -9.166391 -2.612000
23.382669 -9.037799 -2.684020
23.470779 -8.921010 -2.694260
23.592474 -8.853843 -2.714286
23.743629 -8.799262 -2.713261
23.908270 -8.756801 -2.741372
24.085291 -8.720808 -2.772652
24.271572 -8.700122 -2.808811
24.464342 -8.676882 -2.848096
24.658440 -8.655845 -2.885960
24.854992 -8.633892 -2.923035
25.049038 -8.593781 -2.967462
25.249371 -8.566706 -2.996283
25.445965 -8.525930 -3.038206
25.637722 -8.449948 -3.089830
25.814835 -8.362053 -3.142573
25.995909 -8.258764 -3.203164
26.154720 -8.145873 -3.269351
26.314705 -8.014548 -3.333545
26.441759 -7.875824 -3.412737
26.593971 -7.745896 -3.478514
26.718716 -7.594280 -3.544829
26.826662 -7.440058 -3.623879
26.904734 -7.264441 -3.706568
26.969961 -7.087882 -3.786344
27.043110 -6.909445 -3.857317
27.095837 -6.724400 -3.932580
27.128799 -6.538864 -4.009190
27.160110 -6.347409 -4.080744
27.155951 -6.158544 -4.159132
27.148947 -5.964339 -4.227869
27.130136 -5.769268 -4.290365
27.107744 -5.572709 -4.346716
27.048368 -5.383067 -4.409200
26.971294 -5.203789 -4.464993
26.876665 -5.031523 -4.517044
26.787327 -4.860512 -4.568181
26.717550 -4.678723 -4.611539
26.629757 -4.510341 -4.660603
26.562134 -4.326490 -4.704916
26.507565 -4.141960 -4.740387
26.445421 -3.966097 -4.790252
26.386185 -3.793312 -4.839858
26.325584 -3.630715 -4.901221
26.303774 -3.469129 -4.961457
26.269464 -3.337654 -5.033707
26.272284 -3.211602 -5.119684
26.348785 -3.099681 -5.170390
26.450262 -3.017751 -5.193162
26.586729 -2.959296 -5.182975
26.740789 -2.917441 -5.207008
26.921646 -2.894674 -5.214067
27.104097 -2.905940 -5.234365
27.297766 -2.910401 -5.252212
27.494574 -2.910239 -5.287462
27.691008 -2.890138 -5.322164
27.884272 -2.862693 -5.364863
28.083393 -2.843950 -5.399927
28.282524 -2.836231 -5.428712
28.482019 -2.822572 -5.456245
28.684563 -2.808066 -5.485624
28.882113 -2.767676 -5.519812
29.074873 -2.725249 -5.557804
29.267658 -2.664183 -5.597337
29.456306 -2.602101 -5.633556
29.646898 -2.522221 -5.683088
29.825050 -2.431137 -5.729115
29.998569 -2.324696 -5.786901
30.161844 -2.207573 -5.844499
30.310030 -2.073358 -5.912781
30.440628 -1.929162 -5.978849
30.554119 -1.767751 -6.056129
30.680960 -1.620367 -6.120696
30.769541 -1.439077 -6.193522
30.856432 -1.271701 -6.268891
30.919329 -1.081372 -6.340733
30.970940 -0.897468 -6.415481
31.022530 -0.711356 -6.475000
31.059206 -0.521252 -6.545242
31.091787 -0.325266 -6.604633
31.126057 -0.134681 -6.669656
31.128962 0.058684 -6.718050
31.094070 0.254233 -6.782609
31.119690 0.445279 -6.830462
31.116173 0.638362 -6.884635
31.084972 0.828708 -6.934060
31.085278 1.029195 -6.985301
31.081608 1.227186 -7.024129
31.036959 1.418968 -7.083376
31.005285 1.612652 -7.133775
30.956247 1.802746 -7.192928
30.935207 1.995759 -7.239882
30.878031 2.181590 -7.296118
30.847383 2.376269 -7.349421
30.815491 2.567665 -7.401485
30.768147 2.756404 -7.458897
30.701572 2.937595 -7.521867
30.677273 3.135543 -7.567989
30.626205 3.323430 -7.620934
30.570024 3.507647 -7.679165
30.517405 3.691777 -7.737721
30.457829 3.871677 -7.804476
30.377790 4.043845 -7.871304
30.345263 4.224637 -7.946023
30.292126 4.399890 -8.022667
30.267231 4.588432 -8.088645
30.230076 4.770584 -8.159027
30.199478 4.956936 -8.226676
30.149548 5.133575 -8.301343
30.107954 5.317350 -8.374143
30.076744 5.502663 -8.433820
30.029957 5.687421 -8.500754
29.965071 5.856359 -8.569831
29.905621 6.026320 -8.636983
29.845161 6.192663 -8.705593
29.821894 6.352543 -8.771313
29.800135 6.498842 -8.843414
29.820875 6.650580 -8.922771
29.864584 6.772399 -8.989252
29.987066 6.889452 -9.044406
30.122681 6.980528 -9.087965
30.291090 7.049935 -9.126338
30.456581 7.097448 -9.194151
30.622242 7.158729 -9.274547
30.810036 7.195491 -9.349597
30.957727 7.282308 -9.445634
31.125340 7.356721 -9.538584
31.271656 7.460018 -9.636866
31.419962 7.569891 -9.732945
31.543259 7.701768 -9.825407
31.677988 7.824998 -9.920682
31.811302 7.945815 -10.008324
31.920406 8.095095 -10.109578
32.032513 8.236647 -10.201928
32.123478 8.394509 -10.302814
32.198822 8.563280 -10.397976
32.262402 8.733186 -10.497923
32.350014 8.892324 -10.594060
32.427261 9.057404 -10.691463
32.486683 9.230038 -10.781347
32.542385 9.405772 -10.872478
32.588631 9.583976 -10.959553
32.635826 9.764940 -11.044711
32.678085 9.948646 -11.124261
32.702595 10.137096 -11.203603
32.706043 10.327251 -11.277270
32.701374 10.521194 -11.343620
32.720509 10.711783 -11.419662
32.745758 10.900785 -11.487435
32.743641 11.098834 -11.551554
32.715927 11.292192 -11.607679
32.690300 11.485597 -11.662841
32.656536 11.674662 -11.710281
32.626015 11.867510 -11.759171
32.613216 12.054593 -11.817088
32.585361 12.234310 -11.868123
32.587971 12.427294 -11.931579
32.610912 12.609550 -11.987127
32.624741 12.793050 -12.056521
32.657192 12.974938 -12.117833
32.693565 13.158956 -12.184989
32.737202 13.339139 -12.255225
32.773087 13.521982 -12.332895
32.791538 13.699814 -12.418587
32.803787 13.876294 -12.507409
32.812363 14.045256 -12.604739
32.844143 14.212029 -12.690771
32.867794 14.365384 -12.790330
32.904842 14.511995 -12.884584
32.982109 14.636127 -12.985147
33.061764 14.753512 -13.076406
33.194851 14.852226 -13.159102
33.328060 14.933352 -13.244040
33.481186 15.006109 -13.322927
33.634113 15.079765 -13.414474
33.799759 15.132986 -13.506962
33.965641 15.197387 -13.598149
34.129841 15.265692 -13.689229
34.299820 15.340818 -13.782351
34.451469 15.426805 -13.882610
34.600105 15.527764 -13.981579
34.749363 15.620805 -14.085251
34.869198 15.747710 -14.198586
34.991936 15.872153 -14.305390
35.114311 16.002529 -14.408726
35.233109 16.140797 -14.513685
35.316856 16.303316 -14.611987
35.372643 16.468470 -14.711741
35.448597 16.638277 -14.800687
35.531021 16.809237 -14.881656
35.582687 16.988070 -14.959346
35.625305 17.178431 -15.032507
35.628712 17.367432 -15.103513
35.637775 17.561756 -15.166917
35.659916 17.750072 -15.229137
35.658775 17.945436 -15.279426
35.630718 18.130905 -15.338107
35.636642 18.332573 -15.388962
35.645603 18.525467 -15.431467
35.641685 18.718893 -15.479368
35.635014 18.916378 -15.527730
35.659496 19.114790 -15.562916
35.668011 19.312164 -15.601682
35.664913 19.508102 -15.648645
35.654625 19.705791 -15.696756
35.647915 19.902155 -15.741885
35.644947 20.100395 -15.787836
35.609768 20.288475 -15.840850
35.581326 20.478262 -15.891121
