BEGIN_18
5.491761 1.289390 -2.434161
5.496712 1.390391 -2.396901
5.499104 1.439912 -2.379629
5.505193 1.511447 -2.352558
5.507249 1.535190 -2.343908
5.515782 1.635133 -2.306957
5.516943 1.648644 -2.302082
5.518003 1.665911 -2.295820
5.521878 1.780828 -2.255220
5.525361 1.807188 -2.243779
5.534803 1.864652 -2.222926
5.533113 1.929864 -2.200212
5.527897 1.971171 -2.187606
5.525158 1.993332 -2.181108
5.520193 2.039333 -2.169696
5.513921 2.082959 -2.153186
5.510600 2.125236 -2.141498
5.508257 2.148012 -2.135250
5.502934 2.194038 -2.120422
5.499353 2.227428 -2.110014
5.497236 2.243383 -2.103061
5.492145 2.306056 -2.084675
5.488407 2.350436 -2.070190
5.485859 2.380847 -2.060797
5.472111 2.503023 -2.014340
5.445961 2.603301 -1.983394
5.440807 2.630538 -1.973384
5.433139 2.660935 -1.963783
5.419313 2.718191 -1.944394
5.408579 2.778293 -1.926808
5.401045 2.815123 -1.916032
5.387753 2.862487 -1.904122
5.382954 2.879596 -1.900066
5.370879 2.919966 -1.891463
5.359587 2.953476 -1.885672
5.341695 2.998768 -1.877811
5.330542 3.027055 -1.872934
5.326355 3.036988 -1.871638
5.300060 3.094073 -1.864489
5.278843 3.134125 -1.860385
5.273490 3.147103 -1.857857
5.256839 3.188434 -1.852085
5.242857 3.222992 -1.847677
5.235115 3.238701 -1.844630
5.220843 3.269505 -1.840137
5.209590 3.298270 -1.834866
5.205081 3.309340 -1.834085
5.191958 3.333697 -1.826354
5.168851 3.369195 -1.825455
5.144894 3.417121 -1.819525
5.127944 3.453607 -1.815671
5.104323 3.499002 -1.808303
5.093710 3.520371 -1.805414
5.066814 3.564710 -1.798215
5.048924 3.587645 -1.790941
5.047228 3.595309 -1.796685
5.025297 3.625580 -1.794867
5.016004 3.645510 -1.792279
5.009019 3.663851 -1.789922
5.000177 3.688450 -1.783388
4.988328 3.717144 -1.773202
4.984982 3.729138 -1.768986
4.971268 3.763897 -1.752320
4.959293 3.793377 -1.741850
4.926482 3.860988 -1.715985
4.922028 3.867139 -1.714219
4.918900 3.871983 -1.713142
4.883045 3.924402 -1.700020
4.858911 3.959646 -1.689957
4.852577 3.970039 -1.686660
4.832120 4.002036 -1.675078
4.805778 4.043225 -1.659508
4.797823 4.056917 -1.655251
4.776544 4.089834 -1.640822
4.749010 4.126809 -1.626678
4.739350 4.139565 -1.621804
4.714955 4.171189 -1.609020
4.672558 4.236621 -1.578343
4.605674 4.317460 -1.538503
4.602002 4.315010 -1.532203
4.594370 4.329381 -1.532161
4.550210 4.377112 -1.508192
4.511886 4.414321 -1.489870
4.449484 4.471150 -1.462914
4.432570 4.487376 -1.454661
4.385616 4.532761 -1.430901
4.331486 4.590479 -1.398000
4.323491 4.598133 -1.394130
4.307348 4.611058 -1.387612
4.215444 4.675245 -1.368825
4.196049 4.686809 -1.364864
4.167087 4.707614 -1.356676
4.127919 4.737643 -1.343863
4.119786 4.741891 -1.336439
4.070949 4.784442 -1.321127
4.029559 4.813628 -1.304601
4.003000 4.835318 -1.290195
3.987524 4.848665 -1.282173
3.966999 4.867151 -1.266764
3.940945 4.889223 -1.249403
3.883401 4.941966 -1.204238
3.868017 4.956314 -1.190530
3.862418 4.954797 -1.184551
3.854635 4.968296 -1.179520
3.798262 5.016605 -1.132359
3.774580 5.037407 -1.110383
3.724742 5.085013 -1.054970
3.713272 5.094441 -1.043809
3.697997 5.105628 -1.032334
3.648714 5.136381 -0.997463
3.617354 5.158535 -0.971950
3.606308 5.168031 -0.961632
3.581994 5.188822 -0.937742
3.575750 5.193343 -0.932011
3.570218 5.197286 -0.927923
3.558434 5.204000 -0.917875
3.526545 5.224230 -0.893518
3.488852 5.241106 -0.875291
3.473824 5.246645 -0.868408
3.453829 5.254739 -0.860364
3.426331 5.261677 -0.850473
3.415161 5.263673 -0.847066
3.366042 5.270465 -0.829604
3.314980 5.278872 -0.813174
3.295879 5.281276 -0.808328
3.262404 5.281061 -0.803321
3.252605 5.280816 -0.802325
3.206825 5.286554 -0.791359
3.195441 5.287848 -0.790851
3.172418 5.285223 -0.786659
3.148595 5.294843 -0.785723
3.125328 5.298357 -0.783013
3.102536 5.302927 -0.781148
3.088131 5.307877 -0.776136
3.064167 5.313595 -0.771184
3.049073 5.317373 -0.768310
3.007219 5.328796 -0.758306
2.998796 5.331015 -0.756346
2.949681 5.341249 -0.752645
2.901082 5.347449 -0.756229
2.883523 5.350338 -0.758043
2.815843 5.355497 -0.767209
2.794533 5.356925 -0.770886
2.741374 5.366191 -0.773304
2.707337 5.372800 -0.773679
2.682211 5.378071 -0.774117
2.658989 5.381324 -0.777703
2.615177 5.388633 -0.783773
2.554751 5.392432 -0.791535
2.497552 5.398279 -0.815138
2.485285 5.399779 -0.817781
2.455992 5.404194 -0.824515
2.436005 5.406579 -0.829211
2.406003 5.408178 -0.844540
2.372724 5.408761 -0.857519
2.310978 5.417366 -0.875175
2.294602 5.420902 -0.879253
2.217225 5.430418 -0.903263
2.141846 5.440356 -0.931488
2.079082 5.448424 -0.952096
2.052923 5.452143 -0.962339
1.952557 5.469733 -1.000643
1.850987 5.489387 -1.035865
1.781939 5.506511 -1.059671
1.702374 5.522857 -1.084214
1.664026 5.530115 -1.098337
1.623809 5.539095 -1.112416
1.586054 5.548385 -1.125651
1.546658 5.555654 -1.140070
1.470104 5.575016 -1.163629
1.456388 5.575409 -1.165981
1.441640 5.582014 -1.171515
1.374796 5.602531 -1.185715
1.331469 5.612925 -1.196976
1.319328 5.613483 -1.199295
1.306672 5.618658 -1.205031
1.270477 5.628354 -1.212303
1.256467 5.632576 -1.214885
1.218693 5.642715 -1.221367
1.165269 5.657171 -1.224508
1.148343 5.661365 -1.225963
1.084067 5.675306 -1.231301
1.020243 5.690341 -1.232209
0.975813 5.699951 -1.233360
0.875215 5.708586 -1.257774
0.850981 5.709761 -1.265016
0.784767 5.714452 -1.280940
0.713383 5.720978 -1.292556
0.658311 5.726480 -1.300782
0.615332 5.731911 -1.304521
0.551864 5.738715 -1.310069
0.524273 5.742348 -1.310627
0.441920 5.752223 -1.326082
0.376970 5.759289 -1.338577
0.331942 5.763801 -1.345830
0.302484 5.766912 -1.349711
0.244087 5.771567 -1.362461
0.155562 5.774684 -1.373134
0.145082 5.772628 -1.373118
0.136740 5.774035 -1.374324
0.033463 5.785098 -1.383853
-0.055927 5.789398 -1.385239
-0.108000 5.792346 -1.388064
-0.136498 5.795554 -1.392051
-0.195329 5.795692 -1.394533
-0.309034 5.794319 -1.397492
-0.377682 5.792314 -1.396264
-0.455483 5.787021 -1.393149
-0.568321 5.773860 -1.388284
-0.671689 5.755428 -1.392437
-0.701350 5.749907 -1.394868
-0.753293 5.739686 -1.395637
-0.786901 5.732269 -1.395073
-0.873702 5.714415 -1.392608
-0.953003 5.700205 -1.388025
-0.971935 5.696523 -1.386469
-1.058255 5.675115 -1.377218
-1.179654 5.640851 -1.361017
-1.288230 5.621965 -1.339069
-1.344257 5.610777 -1.336159
-1.360790 5.602758 -1.331906
-1.367279 5.607460 -1.336541
-1.447530 5.590727 -1.329569
-1.456381 5.589274 -1.329326
-1.502593 5.580101 -1.330801
-1.535639 5.575020 -1.330408
-1.577783 5.567059 -1.333840
-1.603061 5.562362 -1.336746
-1.651912 5.557395 -1.338491
-1.704539 5.552247 -1.344290
-1.718122 5.550121 -1.346948
-1.753561 5.545084 -1.354442
-1.779108 5.542443 -1.361351
-1.795150 5.539585 -1.364744
-1.827353 5.533423 -1.374207
-1.854134 5.528228 -1.382077
-1.890781 5.521551 -1.392600
-1.904679 5.519912 -1.396767
-1.964035 5.512537 -1.413290
-1.988979 5.508919 -1.421556
-2.031121 5.502416 -1.435889
-2.066729 5.493726 -1.449458
-2.096696 5.484204 -1.463297
-2.132388 5.473521 -1.480779
-2.145086 5.466772 -1.483251
-2.165125 5.462983 -1.497875
-2.198290 5.454442 -1.514864
-2.251110 5.441803 -1.541835
-2.306326 5.431489 -1.568052
-2.356673 5.418687 -1.595226
-2.420298 5.407369 -1.621360
-2.456339 5.404123 -1.632588
-2.487921 5.402892 -1.642048
-2.524668 5.400539 -1.651930
-2.552537 5.397774 -1.658320
-2.601981 5.388124 -1.673960
-2.617687 5.381353 -1.680841
-2.651337 5.369000 -1.696161
-2.707718 5.355066 -1.712945
-2.773913 5.343275 -1.730872
-2.830344 5.333065 -1.746404
-2.894229 5.323073 -1.760869
-2.953560 5.311670 -1.775293
-3.012420 5.298071 -1.790516
-3.037493 5.291487 -1.796784
-3.061521 5.285968 -1.803554
-3.106327 5.275766 -1.814173
-3.156440 5.264534 -1.825045
-3.192306 5.255320 -1.835595
-3.310353 5.220861 -1.879927
-3.317687 5.218023 -1.882205
-3.343158 5.210693 -1.891883
-3.439711 5.184721 -1.930033
-3.515554 5.155930 -1.971209
-3.564680 5.134227 -2.000771
-3.606774 5.115827 -2.026452
-3.652092 5.098826 -2.050812
-3.705906 5.079584 -2.080497
-3.773851 5.055362 -2.114507
-3.807672 5.042974 -2.131225
-3.849257 5.029152 -2.153775
-3.869992 5.021432 -2.168092
-3.890814 5.011649 -2.182735
-3.923930 4.998715 -2.206285
-3.977618 4.981641 -2.227751
-4.011941 4.969165 -2.241798
-4.058581 4.955874 -2.255906
-4.084764 4.949058 -2.264884
-4.141966 4.932765 -2.281877
-4.208182 4.909745 -2.301118
-4.255051 4.889880 -2.319342
-4.284294 4.872427 -2.336328
-4.355153 4.830600 -2.373963
-4.369641 4.822446 -2.381593
-4.390955 4.809848 -2.392000
-4.404734 4.802066 -2.399125
-4.425414 4.790000 -2.408714
-4.448627 4.778759 -2.415724
-4.460307 4.774512 -2.420141
-4.492643 4.751429 -2.438052
-4.497436 4.747864 -2.441609
-4.522531 4.724272 -2.459339
-4.532953 4.717590 -2.464291
-4.549905 4.704956 -2.473466
-4.555301 4.699635 -2.476544
-4.562136 4.692253 -2.479909
-4.577439 4.676256 -2.489964
-4.589973 4.666396 -2.497480
-4.611272 4.650621 -2.505073
-4.623759 4.641845 -2.510241
-4.648543 4.619322 -2.521749
-4.669506 4.593098 -2.534805
-4.684803 4.572989 -2.543381
-4.707766 4.549795 -2.552058
-4.738889 4.516082 -2.564760
-4.783597 4.465131 -2.583008
-4.793005 4.454339 -2.586893
-4.817672 4.413723 -2.602993
-4.858926 4.341654 -2.633331
-4.867693 4.326820 -2.639998
-4.873480 4.316771 -2.644031
-4.892749 4.278574 -2.661191
-4.907704 4.244357 -2.677110
-4.925395 4.205154 -2.693468
-4.951547 4.156041 -2.714021
-4.967564 4.122275 -2.728087
-4.995751 4.068696 -2.748453
-5.014677 4.036148 -2.760160
-5.027207 4.010078 -2.769600
-5.038328 3.984867 -2.778316
-5.056551 3.945807 -2.791683
-5.069816 3.918118 -2.800704
-5.082246 3.891015 -2.811594
-5.092722 3.852518 -2.821441
-5.110528 3.794043 -2.851209
-5.110357 3.785479 -2.849644
-5.116616 3.776842 -2.857066
-5.133580 3.725031 -2.871526
-5.155256 3.688460 -2.883894
-5.183379 3.636658 -2.894097
-5.217002 3.560775 -2.911027
-5.226234 3.539105 -2.916138
-5.233379 3.520938 -2.920038
-5.256495 3.455116 -2.934309
-5.274611 3.426775 -2.937976
-5.308882 3.365409 -2.946929
-5.312849 3.348345 -2.945685
-5.326059 3.322049 -2.957835
-5.355028 3.247603 -2.976380
-5.361927 3.230252 -2.981587
-5.387097 3.157342 -3.002570
-5.392380 3.139857 -3.007660
-5.401109 3.095698 -3.021432
-5.415898 3.005857 -3.046334
-5.421406 2.898350 -3.079885
-5.426232 2.843149 -3.094942
-5.434853 2.772683 -3.113031
-5.443252 2.700068 -3.131455
-5.441854 2.658551 -3.143863
-5.440893 2.630483 -3.150491
-5.437666 2.515687 -3.180813
-5.437715 2.419069 -3.207326
-5.439073 2.368071 -3.221442
-5.440384 2.267996 -3.250542
-5.439735 2.233834 -3.260331
-5.438002 2.117976 -3.295833
-5.436983 2.074267 -3.309171
-5.422001 1.958468 -3.347529
-5.421380 1.945207 -3.351350
-5.421401 1.934689 -3.355126
-5.420502 1.833718 -3.384299
-5.418567 1.804128 -3.394644
-5.411867 1.711440 -3.423533
-5.410120 1.681909 -3.432916
-5.407053 1.638881 -3.447728
-5.402702 1.578524 -3.468535
-5.395519 1.530818 -3.485259
-5.383885 1.479195 -3.504689
-5.371701 1.425353 -3.525413
-5.367627 1.380818 -3.540626
-5.363943 1.341536 -3.552357
-5.359442 1.311015 -3.562509
-5.353446 1.259979 -3.576875
-5.351581 1.242702 -3.581275
-5.351148 1.235710 -3.583822
-5.341761 1.184149 -3.600303
-5.332765 1.148613 -3.613784
-5.323638 1.112454 -3.627527
-5.318161 1.088727 -3.635731
-5.304459 1.033007 -3.655239
-5.299099 1.010159 -3.663859
-5.285850 0.955111 -3.684326
-5.281450 0.936087 -3.691862
-5.266109 0.888299 -3.713596
-5.253970 0.852388 -3.729280
-5.230543 0.799730 -3.754282
-5.227081 0.792431 -3.757542
-5.222604 0.781824 -3.763586
-5.208939 0.745808 -3.780170
-5.196228 0.703392 -3.796508
-5.191939 0.688337 -3.802108
-5.188321 0.660268 -3.810138
-5.189586 0.626498 -3.816945
-5.187538 0.621507 -3.813638
-5.181520 0.583777 -3.830226
-5.178610 0.563780 -3.835700
-5.175626 0.530078 -3.844230
-5.174295 0.516423 -3.847450
-5.170034 0.468499 -3.859724
-5.167404 0.435917 -3.867961
-5.160415 0.345214 -3.890901
-5.158201 0.310061 -3.899958
-5.155070 0.260103 -3.912920
-5.152889 0.203982 -3.927482
-5.152019 0.178394 -3.934328
-5.151469 0.160414 -3.939065
-5.150145 0.125390 -3.946921
-5.150079 0.110635 -3.951685
-5.149669 0.102380 -3.953222
-5.145618 0.031065 -3.976845
-5.146047 -0.025731 -3.989794
-5.151691 -0.103607 -4.004113
-5.161012 -0.189767 -4.022814
-5.165727 -0.231182 -4.029045
-5.167787 -0.252531 -4.032229
-5.173036 -0.290163 -4.036587
-5.176449 -0.306332 -4.038191
-5.182130 -0.335199 -4.041512
-5.184143 -0.355088 -4.042853
-5.186280 -0.381541 -4.046412
-5.193280 -0.427754 -4.050828
-5.196144 -0.448151 -4.052540
-5.202343 -0.498974 -4.057471
-5.209004 -0.565686 -4.065662
-5.210463 -0.640731 -4.077207
-5.209725 -0.664067 -4.080669
-5.207121 -0.729805 -4.088947
-5.207419 -0.742319 -4.089949
-5.208348 -0.768810 -4.092133
-5.208126 -0.799978 -4.092127
-5.206077 -0.871460 -4.103026
-5.211229 -0.956436 -4.119563
-5.211434 -1.023257 -4.128921
-5.205209 -1.085876 -4.134992
-5.203265 -1.137947 -4.137898
-5.197841 -1.175856 -4.133237
-5.196367 -1.201989 -4.135257
-5.193780 -1.231395 -4.131935
-5.192903 -1.244822 -4.130482
-5.191497 -1.263600 -4.128108
-5.188912 -1.293802 -4.123907
-5.188001 -1.301152 -4.122844
-5.184726 -1.319837 -4.118606
-5.182979 -1.342956 -4.114257
-5.181636 -1.355374 -4.111239
-5.179334 -1.364418 -4.105804
-5.167770 -1.410040 -4.100887
-5.163323 -1.425398 -4.097875
-5.162162 -1.432802 -4.096005
-5.157109 -1.463980 -4.087971
-5.151871 -1.496112 -4.079735
-5.147562 -1.527328 -4.069863
-5.137614 -1.582883 -4.054505
-5.132459 -1.604188 -4.048491
-5.124675 -1.636408 -4.038318
-5.120170 -1.657892 -4.033160
-5.111201 -1.698382 -4.019837
-5.096467 -1.776139 -3.995601
-5.086928 -1.863590 -3.965170
-5.084113 -1.890849 -3.955696
-5.079181 -1.937473 -3.939744
-5.062872 -2.008798 -3.918237
-5.051542 -2.043936 -3.906866
-5.039644 -2.081483 -3.896482
-5.025812 -2.124340 -3.882890
-5.012362 -2.177814 -3.865466
-5.007173 -2.196751 -3.859556
-4.991696 -2.242948 -3.843795
-4.979076 -2.282298 -3.830989
-4.963860 -2.336109 -3.811672
-4.948307 -2.385098 -3.793534
-4.941177 -2.407445 -3.787684
-4.925353 -2.451796 -3.771921
-4.903307 -2.513938 -3.751250
-4.897636 -2.529841 -3.746063
-4.893479 -2.540935 -3.743028
-4.884877 -2.564800 -3.733238
-4.862473 -2.621082 -3.714792
-4.840422 -2.659226 -3.703095
-4.807373 -2.714713 -3.685120
-4.785161 -2.758166 -3.671479
-4.754493 -2.827968 -3.649718
-4.739168 -2.886314 -3.630569
-4.732092 -2.914128 -3.620758
-4.714229 -2.970249 -3.604043
-4.697207 -3.014199 -3.589125
-4.671659 -3.076841 -3.571178
-4.661009 -3.102127 -3.563855
-4.653584 -3.120542 -3.558613
-4.635453 -3.168249 -3.543710
-4.611892 -3.226146 -3.526018
-4.579839 -3.283604 -3.508468
-4.566269 -3.304110 -3.502226
-4.527519 -3.366788 -3.483928
-4.519752 -3.380550 -3.480029
-4.484192 -3.438314 -3.464501
-4.441472 -3.514585 -3.445761
-4.434054 -3.525574 -3.442851
-4.411151 -3.556409 -3.434947
-4.380778 -3.597379 -3.425758
-4.349409 -3.641254 -3.415586
-4.334099 -3.662926 -3.411500
-4.310439 -3.695544 -3.404145
-4.290806 -3.722013 -3.398803
-4.270256 -3.750461 -3.394161
-4.241491 -3.790627 -3.386768
-4.216186 -3.831404 -3.381270
-4.199461 -3.851767 -3.378126
-4.182449 -3.872264 -3.375023
-4.140035 -3.918798 -3.370515
-4.096456 -3.963428 -3.367813
-4.089149 -3.970560 -3.363487
-4.066084 -3.993675 -3.365880
-4.043971 -4.016243 -3.365445
-4.008232 -4.056766 -3.363873
-3.938992 -4.125694 -3.363912
-3.872886 -4.188274 -3.363607
-3.866417 -4.194270 -3.363767
-3.839355 -4.219409 -3.364532
-3.810973 -4.247020 -3.358844
-3.793812 -4.270233 -3.363508
-3.775672 -4.292876 -3.362318
-3.765758 -4.305207 -3.362655
-3.739474 -4.333327 -3.364523
-3.708541 -4.358625 -3.364343
-3.667645 -4.392578 -3.367248
-3.629556 -4.442856 -3.366544
-3.602235 -4.478662 -3.366020
-3.566700 -4.518230 -3.367127
-3.539501 -4.537889 -3.368196
-3.405726 -4.628852 -3.371207
-3.396042 -4.635494 -3.371331
-3.362532 -4.658097 -3.370368
-3.303499 -4.697451 -3.367207
-3.289056 -4.707260 -3.367045
-3.234722 -4.744156 -3.360466
-3.156044 -4.790707 -3.353222
-3.140470 -4.798148 -3.349050
-3.108591 -4.818358 -3.348880
-3.050906 -4.854567 -3.342403
-3.002184 -4.887104 -3.336922
-2.961944 -4.914364 -3.326840
-2.950323 -4.925278 -3.329885
-2.888065 -4.967310 -3.323001
-2.840616 -4.996843 -3.318396
-2.720601 -5.074940 -3.307335
-2.633833 -5.122699 -3.296025
-2.596942 -5.143378 -3.297400
-2.588766 -5.147983 -3.296566
-2.563470 -5.163157 -3.295893
-2.538942 -5.178735 -3.295384
-2.523297 -5.186280 -3.294299
-2.501136 -5.196837 -3.294822
-2.481111 -5.208127 -3.292859
-2.466152 -5.214049 -3.294111
-2.434260 -5.225604 -3.295413
-2.418628 -5.232696 -3.296596
-2.379930 -5.243960 -3.298627
-2.338632 -5.244447 -3.299499
-2.294115 -5.260769 -3.307320
-2.279509 -5.264809 -3.308586
-2.262488 -5.267962 -3.309480
-2.224151 -5.277361 -3.317227
-2.201714 -5.286266 -3.317888
-2.177423 -5.299319 -3.317003
-2.162267 -5.306237 -3.315769
-2.147133 -5.313083 -3.315330
-2.115208 -5.328197 -3.319199
-2.102961 -5.333028 -3.320054
-2.061473 -5.346392 -3.327092
-2.017408 -5.355734 -3.335286
-1.998014 -5.359011 -3.340962
-1.977921 -5.359561 -3.348058
-1.951574 -5.361757 -3.359463
-1.913506 -5.373620 -3.369263
-1.804995 -5.407053 -3.403069
-1.712831 -5.436559 -3.425661
-1.679137 -5.448773 -3.433698
-1.652114 -5.459394 -3.439780
-1.636794 -5.465356 -3.440990
-1.606242 -5.477813 -3.444543
-1.585435 -5.484139 -3.449471
-1.556719 -5.484987 -3.456274
-1.547649 -5.485258 -3.460093
-1.525943 -5.484872 -3.464472
-1.512325 -5.490323 -3.464729
-1.490452 -5.496934 -3.465945
-1.476411 -5.500885 -3.466954
-1.447355 -5.505633 -3.468954
-1.431928 -5.511461 -3.470056
-1.422193 -5.515007 -3.470000
-1.384952 -5.525044 -3.466345
-1.364638 -5.529048 -3.465253
-1.348928 -5.532113 -3.466048
-1.289654 -5.539751 -3.468726
-1.237874 -5.542791 -3.468016
-1.182721 -5.548041 -3.473410
-1.154460 -5.550481 -3.472773
-1.130674 -5.552555 -3.473191
-1.080568 -5.555383 -3.474342
-1.065350 -5.555552 -3.475691
-1.014420 -5.554451 -3.479554
-0.926930 -5.550890 -3.485970
-0.913793 -5.550810 -3.486008
-0.896182 -5.550572 -3.486336
-0.818492 -5.547660 -3.488917
-0.781953 -5.546512 -3.487467
-0.728379 -5.547565 -3.489468
-0.680701 -5.547819 -3.485358
-0.632426 -5.549076 -3.482267
-0.611122 -5.549942 -3.481785
-0.517185 -5.550912 -3.475197
-0.446629 -5.561291 -3.468399
-0.423982 -5.564122 -3.467477
-0.402557 -5.567168 -3.467218
-0.372339 -5.568018 -3.464445
-0.341115 -5.567543 -3.462790
-0.293502 -5.570762 -3.461529
-0.283183 -5.570983 -3.457766
-0.226442 -5.580971 -3.453054
-0.194262 -5.583806 -3.449791
-0.076060 -5.595509 -3.437483
0.031980 -5.607384 -3.429036
0.124936 -5.617393 -3.417639
0.214830 -5.629510 -3.408284
0.245653 -5.632787 -3.404833
0.319121 -5.639018 -3.396521
0.376569 -5.646691 -3.391482
0.421802 -5.651738 -3.385774
0.473787 -5.656631 -3.378571
0.528887 -5.660427 -3.372997
0.566546 -5.663244 -3.369642
0.609462 -5.661572 -3.361101
0.648820 -5.665243 -3.358763
0.700575 -5.667497 -3.353728
0.780119 -5.669593 -3.341744
0.859406 -5.690621 -3.322294
0.931141 -5.686001 -3.314509
0.953619 -5.681823 -3.313936
0.990336 -5.676528 -3.315567
1.032439 -5.671906 -3.314734
1.046355 -5.670184 -3.312636
1.125710 -5.662715 -3.306503
1.157030 -5.658692 -3.304512
1.208009 -5.652423 -3.300293
1.333091 -5.635901 -3.289274
1.400097 -5.620806 -3.281363
1.423212 -5.618304 -3.285044
1.478022 -5.607922 -3.282743
1.525272 -5.601741 -3.279143
1.560754 -5.598758 -3.277633
1.608637 -5.592960 -3.272814
1.644433 -5.588038 -3.270956
1.660217 -5.585609 -3.272563
1.724756 -5.571354 -3.273600
1.760975 -5.563457 -3.274374
1.786098 -5.559819 -3.272589
1.804612 -5.557717 -3.272349
1.835919 -5.551931 -3.272727
1.874685 -5.544461 -3.272599
1.919858 -5.535572 -3.272404
1.981350 -5.519404 -3.272189
1.998532 -5.515157 -3.273005
2.059997 -5.500654 -3.271457
2.106628 -5.486588 -3.268781
2.165452 -5.469524 -3.267430
2.303011 -5.418585 -3.264551
2.325637 -5.409531 -3.264074
2.381554 -5.387431 -3.261925
2.429983 -5.369454 -3.261805
2.491933 -5.345027 -3.259063
2.574160 -5.304979 -3.259556
2.587520 -5.298896 -3.260465
2.663318 -5.260239 -3.262808
2.688770 -5.245977 -3.263526
2.711658 -5.232562 -3.265751
2.744188 -5.211395 -3.267128
2.774899 -5.191678 -3.264125
2.781754 -5.189911 -3.268963
2.820720 -5.170784 -3.270897
2.838748 -5.162728 -3.271018
2.866591 -5.150443 -3.270790
2.909154 -5.133764 -3.269730
2.954748 -5.105140 -3.271676
2.994272 -5.068903 -3.278044
3.014251 -5.051119 -3.281157
3.025033 -5.040753 -3.282094
3.077074 -4.988604 -3.287131
3.086055 -4.983085 -3.292647
3.125028 -4.950901 -3.295366
3.141032 -4.935526 -3.298145
3.177892 -4.902359 -3.299617
3.209912 -4.877457 -3.301891
3.236212 -4.847986 -3.309764
3.267456 -4.811195 -3.316040
3.300331 -4.772216 -3.318842
3.304781 -4.770527 -3.322829
3.339510 -4.738372 -3.325763
3.369855 -4.713741 -3.326828
3.390892 -4.696766 -3.326677
3.407660 -4.683077 -3.327863
3.438205 -4.658149 -3.328274
3.447512 -4.651927 -3.328115
3.482817 -4.628023 -3.326743
3.505703 -4.611094 -3.325745
3.557851 -4.558829 -3.323698
3.575129 -4.548250 -3.325691
3.640679 -4.501124 -3.321058
3.658112 -4.487902 -3.319783
3.709522 -4.447869 -3.315973
3.775943 -4.396260 -3.311239
3.812133 -4.366446 -3.307424
3.847469 -4.337821 -3.304580
3.894838 -4.299592 -3.299647
3.916797 -4.282629 -3.296122
3.939836 -4.265626 -3.293852
3.970728 -4.239349 -3.290389
4.010543 -4.217592 -3.280403
4.043559 -4.198688 -3.271991
4.066628 -4.183057 -3.267080
4.083295 -4.169131 -3.265431
4.131307 -4.124773 -3.261682
4.193284 -4.067051 -3.253845
4.242496 -4.004992 -3.254014
4.289355 -3.949634 -3.255412
4.307489 -3.925615 -3.256122
4.355789 -3.854244 -3.259468
4.392736 -3.800172 -3.265116
4.408664 -3.776874 -3.266917
4.428187 -3.750206 -3.266130
4.455349 -3.711700 -3.267099
4.494587 -3.642356 -3.272186
4.500968 -3.630219 -3.273601
4.531877 -3.568372 -3.279065
4.546109 -3.540020 -3.281132
4.564709 -3.501925 -3.283502
4.581550 -3.463220 -3.287130
4.600317 -3.427195 -3.288143
4.611947 -3.411880 -3.287959
4.638902 -3.372548 -3.286042
4.673618 -3.308493 -3.286863
4.715286 -3.229718 -3.286556
4.724300 -3.210650 -3.286901
4.734498 -3.179288 -3.285440
4.745378 -3.146015 -3.285847
4.756836 -3.111251 -3.284957
4.768924 -3.085664 -3.282792
4.790418 -3.043931 -3.279047
4.795769 -3.033251 -3.278094
4.813212 -2.989991 -3.273556
4.816740 -2.981084 -3.273351
4.830137 -2.950663 -3.270785
4.844304 -2.925304 -3.269379
4.846480 -2.917041 -3.263756
4.864690 -2.881617 -3.259298
4.885767 -2.819293 -3.253506
4.889614 -2.779872 -3.252652
4.891549 -2.747841 -3.250505
4.908355 -2.661553 -3.242403
4.916485 -2.626619 -3.239008
4.921559 -2.601589 -3.237325
4.937424 -2.516205 -3.229708
4.944479 -2.477288 -3.225117
4.962143 -2.402203 -3.215465
4.970041 -2.370613 -3.210871
4.984547 -2.320962 -3.202368
5.003277 -2.267313 -3.193898
5.020792 -2.202867 -3.184629
5.027707 -2.165990 -3.183000
5.033231 -2.129908 -3.177591
5.049209 -2.042352 -3.171429
5.053633 -2.014410 -3.169904
5.069775 -1.886383 -3.166276
5.079630 -1.776847 -3.164249
5.082559 -1.748624 -3.164083
5.090127 -1.682810 -3.159847
5.097121 -1.642761 -3.156890
5.105026 -1.606382 -3.152215
5.109735 -1.567993 -3.149443
5.111115 -1.530653 -3.146266
5.114367 -1.488799 -3.143424
5.122066 -1.419483 -3.136523
5.126327 -1.395265 -3.134671
5.134786 -1.310549 -3.121409
5.138869 -1.218625 -3.111742
5.138122 -1.129703 -3.103689
5.138805 -1.035174 -3.090704
5.138984 -1.026083 -3.088119
5.140074 -0.996520 -3.085156
5.140801 -0.962179 -3.077386
5.140760 -0.915777 -3.076403
5.139157 -0.871207 -3.066334
5.136884 -0.845845 -3.060682
5.136204 -0.820289 -3.058892
5.133174 -0.765771 -3.052581
5.129200 -0.713822 -3.043798
5.123170 -0.665449 -3.033427
5.116812 -0.614046 -3.022804
5.112254 -0.530040 -3.003663
5.111261 -0.497164 -2.993967
5.114683 -0.436032 -2.970924
5.123395 -0.385533 -2.956714
5.127903 -0.367104 -2.950804
5.137962 -0.333307 -2.938260
5.144229 -0.309484 -2.928026
5.150760 -0.294285 -2.921015
5.180692 -0.244941 -2.893052
5.197734 -0.214331 -2.873979
5.205024 -0.198474 -2.866866
5.233510 -0.135498 -2.836457
5.256010 -0.091773 -2.823825
5.270259 -0.061343 -2.810508
5.284043 -0.031434 -2.798540
5.294441 -0.007662 -2.792010
5.310747 0.035629 -2.780636
5.324386 0.071730 -2.771797
5.332421 0.092173 -2.765414
5.357192 0.154196 -2.747806
5.364374 0.173843 -2.741661
5.380079 0.224761 -2.730180
5.388645 0.275390 -2.719435
5.392728 0.300608 -2.714633
5.399066 0.340385 -2.705264
5.405369 0.381032 -2.695656
5.406646 0.391386 -2.693362
5.411077 0.431021 -2.684386
5.416191 0.465995 -2.678031
5.418566 0.484539 -2.673711
5.423369 0.522753 -2.665742
5.435407 0.563591 -2.656002
5.446644 0.609424 -2.646758
5.451006 0.646074 -2.640353
5.454511 0.678755 -2.634259
5.459012 0.727382 -2.624622
5.460790 0.770063 -2.613800
5.461009 0.784275 -2.610730
5.461169 0.801050 -2.605994
5.463062 0.852086 -2.593509
5.465638 0.899666 -2.577178
5.465703 0.911514 -2.575822
5.470735 0.980280 -2.553071
5.478274 1.058759 -2.524512
5.482739 1.095636 -2.511596
5.489901 1.203016 -2.467845
END_18
