BEGIN_18
-0.608827 29.922878 -2.151403
-0.671314 29.912762 -1.941396
-0.683550 29.913635 -1.904931
-0.691006 29.913933 -1.883383
-0.723680 29.915039 -1.788642
-0.749813 29.907412 -1.699524
-0.756319 29.908272 -1.681665
-0.788390 29.908945 -1.604451
-0.810389 29.908104 -1.549944
-0.885796 29.896976 -1.389207
-0.918847 29.889318 -1.315900
-0.971559 29.896587 -1.230552
-1.079665 29.899155 -1.090990
-1.094173 29.898260 -1.071371
-1.131988 29.904179 -1.026164
-1.141183 29.906277 -1.015646
-1.175184 29.913437 -0.979151
-1.189269 29.915707 -0.966783
-1.286730 29.920755 -0.923554
-1.374774 29.940954 -0.890587
-1.420961 29.944910 -0.893743
-1.457331 29.942093 -0.914493
-1.555145 29.955832 -0.978133
-1.568129 29.959364 -0.987210
-1.582631 29.960518 -1.006624
-1.636142 29.964430 -1.079429
-1.679392 29.985588 -1.152705
-1.694002 29.990589 -1.175735
-1.743863 29.987711 -1.321893
-1.759658 29.998505 -1.382169
-1.778725 30.008755 -1.477020
-1.795671 30.015957 -1.558458
-1.809999 30.018642 -1.649103
-1.820174 30.019215 -1.710073
-1.840335 30.023636 -1.813524
-1.851154 30.039070 -1.896074
-1.856238 30.046616 -1.935475
-1.864679 30.055975 -1.994327
-1.865503 30.056818 -2.000719
-1.868649 30.059000 -2.022954
-1.869945 30.059244 -2.036136
-1.876880 30.060925 -2.104409
-1.897459 30.060165 -2.288544
-1.908493 30.056238 -2.426847
-1.912638 30.053423 -2.471982
-1.923577 30.041746 -2.569499
-1.924094 30.041454 -2.575426
-1.929328 30.040998 -2.622317
-1.933560 30.040861 -2.658990
-1.935726 30.040613 -2.677148
-1.940562 30.038586 -2.724834
-1.944431 30.039042 -2.773625
-1.951941 30.037376 -2.855276
-1.962483 30.035833 -2.973970
-1.972496 30.022627 -3.026490
-1.984991 30.012028 -3.084504
-1.988387 30.032707 -3.176849
-1.996385 30.028927 -3.223742
-2.002674 30.025887 -3.260809
-2.020008 30.021191 -3.375112
-2.034711 30.021805 -3.454722
-2.044233 30.020866 -3.502983
-2.051810 30.021055 -3.544004
-2.072196 30.021011 -3.659046
-2.085016 30.025286 -3.714116
-2.096271 30.028179 -3.760852
-2.118686 30.022842 -3.833123
-2.130188 30.030567 -3.886072
-2.155267 30.034498 -3.978162
-2.165103 30.044779 -4.029266
-2.178837 30.059689 -4.091112
-2.190714 30.062149 -4.128295
-2.208159 30.068693 -4.174761
-2.215074 30.069258 -4.190649
-2.221521 30.072950 -4.209406
-2.237344 30.080744 -4.260501
-2.284904 30.095545 -4.401123
-2.294274 30.100712 -4.422889
-2.325010 30.118723 -4.495520
-2.339928 30.126644 -4.529819
-2.347562 30.129662 -4.549830
-2.365286 30.134094 -4.592452
-2.401821 30.137869 -4.672308
-2.409480 30.139889 -4.685539
-2.424544 30.143427 -4.711048
-2.513904 30.165730 -4.863917
-2.526419 30.165751 -4.881630
-2.528252 30.165621 -4.884507
-2.539205 30.166527 -4.904172
-2.568404 30.172251 -4.946338
-2.580624 30.174871 -4.963284
-2.669333 30.187117 -5.077538
-2.691561 30.189325 -5.105060
-2.746742 30.199896 -5.159932
-2.755367 30.200956 -5.167844
-2.785475 30.203676 -5.194372
-2.810165 30.204821 -5.218331
-2.829346 30.208523 -5.240709
-2.862077 30.209639 -5.271935
-2.891496 30.212910 -5.293768
-2.955306 30.217033 -5.337678
-2.973912 30.218550 -5.349306
-3.058221 30.212046 -5.385886
-3.076946 30.209829 -5.393083
-3.180946 30.203194 -5.418721
-3.215348 30.211191 -5.438229
-3.232722 30.215137 -5.449950
-3.242788 30.214485 -5.451362
-3.325347 30.210344 -5.456779
-3.415479 30.205544 -5.464128
-3.423248 30.205627 -5.465276
-3.442070 30.206329 -5.466479
-3.449744 30.205677 -5.465960
-3.462766 30.204884 -5.464194
-3.594886 30.191999 -5.441416
-3.678080 30.185865 -5.429071
-3.701099 30.183065 -5.424541
-3.717602 30.181423 -5.420328
-3.747293 30.175533 -5.409622
-3.772777 30.171125 -5.398982
-3.829715 30.161293 -5.375222
-3.857919 30.156382 -5.363548
-3.926873 30.145542 -5.336228
-3.953222 30.142311 -5.323714
-4.019002 30.125956 -5.282868
-4.026202 30.124208 -5.278393
-4.079291 30.111401 -5.245486
-4.129413 30.100389 -5.212386
-4.152421 30.095436 -5.197305
-4.181302 30.089397 -5.178076
-4.190326 30.086584 -5.171056
-4.267138 30.060673 -5.109164
-4.278851 30.056986 -5.099138
-4.342137 30.036970 -5.044872
-4.366119 30.029358 -5.024367
-4.385813 30.019388 -5.003432
-4.443703 29.991436 -4.943380
-4.499281 29.966190 -4.883595
-4.549185 29.938053 -4.823707
-4.601727 29.908407 -4.760675
-4.617207 29.896717 -4.738744
-4.623513 29.892174 -4.730062
-4.665855 29.862303 -4.670427
-4.743281 29.807487 -4.561796
-4.752264 29.800638 -4.548631
-4.775490 29.783075 -4.514759
-4.808631 29.758753 -4.464768
-4.815310 29.753826 -4.454665
-4.837618 29.737267 -4.420794
-4.878648 29.707041 -4.357972
-4.884860 29.702543 -4.348283
-4.915803 29.666624 -4.283325
-4.918770 29.664137 -4.278276
-4.930617 29.654276 -4.257967
-4.987282 29.602953 -4.155707
-5.009066 29.583824 -4.114793
-5.029062 29.567011 -4.078197
-5.104286 29.503428 -3.941320
-5.110227 29.497696 -3.929611
-5.113659 29.495241 -3.923931
-5.118819 29.490519 -3.914084
-5.179767 29.437849 -3.790404
-5.190196 29.428734 -3.769099
-5.200737 29.418915 -3.746735
-5.220448 29.400660 -3.704670
-5.277994 29.351631 -3.571606
-5.299413 29.336763 -3.527379
-5.311922 29.326183 -3.498575
-5.348839 29.294621 -3.412982
-5.361716 29.283403 -3.378483
-5.386737 29.248978 -3.288826
-5.412863 29.227371 -3.220900
-5.428679 29.215193 -3.179002
-5.439922 29.205202 -3.146730
-5.447675 29.198563 -3.124159
-5.469878 29.181509 -3.063350
-5.474880 29.175922 -3.046249
-5.492487 29.159708 -2.984159
-5.496818 29.155025 -2.967828
-5.527711 29.129904 -2.869529
-5.540598 29.120846 -2.831647
-5.547575 29.114639 -2.808268
-5.570433 29.091192 -2.733509
-5.580592 29.078283 -2.701742
-5.586158 29.072918 -2.683336
-5.592301 29.064640 -2.657533
-5.597929 29.058340 -2.636884
-5.611224 29.043062 -2.587189
-5.636708 29.006977 -2.476089
-5.649293 28.992168 -2.428349
-5.653519 28.984240 -2.413123
-5.662013 28.969378 -2.381642
-5.662713 28.967731 -2.378260
-5.678815 28.934164 -2.299193
-5.693794 28.891714 -2.201134
-5.698081 28.876265 -2.173463
-5.700400 28.868160 -2.158934
-5.703704 28.845852 -2.119419
-5.708536 28.801348 -2.040844
-5.709457 28.788805 -2.021736
-5.708290 28.776556 -2.005006
-5.706659 28.757427 -1.977055
-5.707871 28.678942 -1.865340
-5.706660 28.662214 -1.840978
-5.706045 28.652655 -1.826546
-5.700598 28.598927 -1.744700
-5.697922 28.570992 -1.702207
-5.697071 28.565191 -1.696101
-5.690499 28.533695 -1.660862
-5.688298 28.523125 -1.648990
-5.678855 28.492165 -1.611020
-5.675202 28.479395 -1.595618
-5.673256 28.471174 -1.586134
-5.659951 28.416805 -1.525519
-5.656744 28.393377 -1.501711
-5.653754 28.367010 -1.472655
-5.650914 28.346319 -1.451660
-5.649346 28.336264 -1.441266
-5.636932 28.265806 -1.366922
-5.632241 28.243488 -1.346600
-5.626167 28.213867 -1.318977
-5.622381 28.187300 -1.298665
-5.598586 28.111263 -1.217789
-5.595170 28.099440 -1.204648
-5.570240 27.970879 -1.084112
-5.569450 27.967222 -1.080836
-5.568783 27.963341 -1.077035
-5.568612 27.950624 -1.068249
-5.565161 27.908190 -1.034051
-5.565270 27.836023 -0.986005
-5.565234 27.830183 -0.982216
-5.566022 27.779737 -0.951335
-5.569214 27.706554 -0.909963
-5.569247 27.704027 -0.908404
-5.568753 27.694380 -0.903628
-5.568120 27.674183 -0.892862
-5.566772 27.652056 -0.882307
-5.567484 27.600653 -0.864093
-5.561879 27.531382 -0.828787
-5.557603 27.463144 -0.789838
-5.556624 27.455282 -0.787473
-5.553758 27.444944 -0.783225
-5.532946 27.372272 -0.752878
-5.524006 27.341141 -0.740017
-5.512045 27.309088 -0.724768
-5.509452 27.302700 -0.723518
-5.448065 27.168629 -0.694788
-5.438671 27.148323 -0.686296
-5.436909 27.145189 -0.685938
-5.430016 27.136969 -0.685118
-5.422695 27.127148 -0.684089
-5.391207 27.084143 -0.689894
-5.350307 27.027559 -0.697232
-5.336490 27.008114 -0.702365
-5.328015 27.001619 -0.706890
-5.313934 26.978842 -0.711367
-5.294276 26.946064 -0.717366
-5.214308 26.850231 -0.751308
-5.193604 26.822992 -0.766215
-5.182903 26.808079 -0.776021
-5.170555 26.794647 -0.788877
-5.095348 26.717079 -0.853291
-5.073860 26.693750 -0.870983
-5.031646 26.650160 -0.907108
-5.015619 26.632057 -0.919870
-4.974721 26.587114 -0.946205
-4.938306 26.550659 -0.971893
-4.931451 26.543474 -0.978630
-4.904988 26.515615 -1.004527
-4.844299 26.454969 -1.045324
-4.818994 26.434666 -1.066469
-4.779732 26.402956 -1.101756
-4.757211 26.385349 -1.115135
-4.710441 26.347055 -1.141405
-4.702098 26.339649 -1.145583
-4.680430 26.323889 -1.159491
-4.669169 26.314894 -1.166016
-4.621465 26.276569 -1.195183
-4.594797 26.255884 -1.206328
-4.573912 26.239790 -1.214320
-4.485738 26.185587 -1.259114
-4.462329 26.169340 -1.269513
-4.411763 26.135643 -1.285387
-4.366999 26.106911 -1.294269
-4.326245 26.098391 -1.315932
-4.273159 26.078690 -1.337527
-4.245627 26.068188 -1.349945
-4.217961 26.058819 -1.357357
-4.091954 26.017250 -1.386359
-4.067086 26.012344 -1.394340
-4.056438 26.009716 -1.397395
-3.946319 25.986717 -1.412496
-3.932138 25.983732 -1.414543
-3.874429 25.975512 -1.425653
-3.780819 25.965996 -1.426675
-3.742293 25.961508 -1.429642
-3.706605 25.959078 -1.433364
-3.645425 25.956320 -1.440549
-3.616275 25.954935 -1.443930
-3.547564 25.953789 -1.443595
-3.410394 25.954433 -1.431447
-3.369138 25.957668 -1.429484
-3.308524 25.961731 -1.428727
-3.273072 25.965778 -1.423115
-3.228975 25.970617 -1.416743
-3.187501 25.972986 -1.409499
-3.172152 25.975069 -1.407509
-3.104238 25.985912 -1.399647
-3.059329 25.994476 -1.389768
-3.011616 26.004019 -1.377765
-2.988858 26.009642 -1.372684
-2.893343 26.037809 -1.338896
-2.851224 26.049660 -1.325550
-2.835056 26.053356 -1.319970
-2.821429 26.057253 -1.315686
-2.802631 26.064886 -1.310973
-2.620196 26.147228 -1.236080
-2.612480 26.150837 -1.232973
-2.558748 26.176268 -1.210295
-2.493611 26.210199 -1.172405
-2.472902 26.220919 -1.161165
-2.320249 26.334269 -1.090620
-2.299856 26.350183 -1.078454
-2.268566 26.371752 -1.058752
-2.217819 26.407747 -1.022639
-2.191928 26.427071 -1.004504
-2.092358 26.511669 -0.937818
-2.030018 26.560211 -0.891326
-2.016567 26.572140 -0.881733
-1.977002 26.608616 -0.849107
-1.885187 26.702599 -0.775633
-1.882421 26.705296 -0.773833
-1.826156 26.765633 -0.738378
-1.816429 26.776634 -0.730718
-1.782577 26.814291 -0.703969
-1.770463 26.822491 -0.693612
-1.752173 26.835228 -0.678029
-1.691323 26.883707 -0.627096
-1.657501 26.906155 -0.610350
-1.645093 26.913536 -0.604118
-1.637780 26.918198 -0.599606
-1.550682 26.970587 -0.545704
-1.518067 26.974257 -0.524889
-1.469570 26.974829 -0.512224
-1.394559 26.976547 -0.492659
-1.383495 26.976927 -0.489311
-1.339303 26.974928 -0.475994
-1.304401 26.970047 -0.476355
-1.291058 26.963371 -0.476539
-1.203266 26.916952 -0.486712
-1.147205 26.886698 -0.493256
-1.073292 26.841742 -0.519702
-1.050108 26.827436 -0.528717
-1.040348 26.817669 -0.532769
-0.993169 26.758139 -0.553181
-0.952122 26.718166 -0.570138
-0.947416 26.713810 -0.572065
-0.927626 26.694965 -0.582288
-0.907471 26.676342 -0.590395
-0.816573 26.595024 -0.626981
-0.798000 26.578344 -0.634453
-0.788041 26.570839 -0.638476
-0.753181 26.545202 -0.652567
-0.692779 26.499790 -0.680877
-0.674120 26.486326 -0.687408
-0.519557 26.369953 -0.746729
-0.438101 26.322515 -0.770569
-0.408364 26.305042 -0.780226
-0.377539 26.287191 -0.788632
-0.249650 26.212095 -0.823264
-0.218511 26.199457 -0.832996
-0.160148 26.175278 -0.851123
-0.126033 26.161928 -0.857584
-0.013426 26.117487 -0.880920
0.099100 26.074335 -0.904628
0.108802 26.071001 -0.906792
0.135065 26.062271 -0.910155
0.177887 26.050516 -0.916022
0.215373 26.041216 -0.920337
0.360913 26.008940 -0.938226
0.369862 26.007307 -0.939168
0.445641 25.994822 -0.947556
0.459270 25.992680 -0.948053
0.537724 25.981722 -0.951454
0.545382 25.980951 -0.951899
0.571637 25.981853 -0.954145
0.703344 25.977642 -0.947377
0.792827 25.977425 -0.943801
0.823435 25.977743 -0.941624
0.840271 25.977982 -0.940845
0.957452 25.986088 -0.923614
0.980731 25.987751 -0.920006
1.069844 25.996506 -0.907001
1.141956 25.999451 -0.895074
1.183724 26.003389 -0.888925
1.219868 26.007357 -0.880200
1.311675 26.018290 -0.852820
1.337632 26.023842 -0.845962
1.393714 26.037561 -0.831759
1.510525 26.066242 -0.801784
1.525338 26.069841 -0.797168
1.559842 26.077776 -0.781418
1.701283 26.120779 -0.720432
1.718620 26.127371 -0.713404
1.766937 26.146358 -0.694037
1.779114 26.151318 -0.688482
1.816049 26.167364 -0.667795
1.951536 26.223808 -0.591050
1.984647 26.242393 -0.573326
1.993243 26.247652 -0.567551
2.062554 26.289860 -0.521520
2.104792 26.312855 -0.492850
2.121479 26.322561 -0.481665
2.164549 26.345322 -0.452279
2.200301 26.363838 -0.429498
2.207406 26.368032 -0.425081
2.325855 26.435900 -0.351041
2.335649 26.441854 -0.344998
2.402069 26.484190 -0.299230
2.406514 26.485401 -0.296486
2.414834 26.490143 -0.291653
2.556019 26.569481 -0.209547
2.576974 26.580996 -0.197329
2.585157 26.581993 -0.192114
2.605247 26.583885 -0.181385
2.632492 26.585983 -0.168537
2.698486 26.587801 -0.137064
2.773675 26.588938 -0.101101
2.845675 26.583929 -0.084910
2.856980 26.582829 -0.082328
2.864860 26.580111 -0.080177
2.887687 26.563232 -0.072867
2.981015 26.502930 -0.044026
2.994465 26.492935 -0.043564
3.082428 26.427404 -0.041041
3.122937 26.399799 -0.040186
3.138162 26.387867 -0.043367
3.170901 26.350971 -0.048952
3.207511 26.303604 -0.049252
3.267750 26.233692 -0.050990
3.331524 26.159540 -0.053782
3.363215 26.136208 -0.056624
3.442275 26.073053 -0.062803
3.516254 26.012115 -0.075311
3.536137 25.995626 -0.079076
3.554305 25.985662 -0.083922
3.586812 25.968290 -0.090608
3.598236 25.962454 -0.093052
3.715409 25.911400 -0.121240
3.731490 25.904510 -0.124526
3.764016 25.885489 -0.129315
3.837322 25.861139 -0.146866
3.903966 25.840174 -0.163254
3.940791 25.827551 -0.176927
3.953034 25.823460 -0.180998
3.962361 25.821703 -0.184760
3.996166 25.816853 -0.192899
4.033894 25.811531 -0.202038
4.150798 25.794771 -0.231343
4.180210 25.791552 -0.239305
4.330739 25.779356 -0.263170
4.347878 25.777981 -0.265896
4.366572 25.776567 -0.268523
4.404341 25.775253 -0.267775
4.507039 25.773966 -0.267279
4.532028 25.777979 -0.270063
4.605636 25.781240 -0.272523
4.611131 25.781580 -0.272452
4.686914 25.791019 -0.255191
4.759906 25.799919 -0.239463
4.811527 25.806721 -0.228836
4.822442 25.808882 -0.223800
4.842457 25.812624 -0.215407
4.874770 25.821152 -0.204293
4.939604 25.841347 -0.185017
5.026996 25.872255 -0.146056
5.040604 25.877487 -0.138506
5.067848 25.883915 -0.119256
5.070529 25.884569 -0.117269
5.151021 25.914522 -0.068392
5.198271 25.933197 -0.040832
5.223907 25.944387 -0.021888
5.262363 25.960722 0.004825
5.341648 25.995916 0.058462
5.386564 26.016073 0.088637
5.396887 26.020533 0.095738
5.413489 26.028542 0.110297
5.453942 26.046482 0.139872
5.490992 26.063364 0.166609
5.609068 26.109140 0.258008
5.613911 26.111206 0.262462
5.629084 26.117762 0.276360
5.691194 26.141750 0.322664
5.761192 26.172564 0.372660
5.776148 26.179367 0.383220
5.823185 26.198492 0.417730
5.856149 26.213123 0.446748
5.908673 26.229706 0.496794
5.948021 26.240845 0.527607
5.974887 26.252497 0.546987
6.007315 26.263832 0.571496
6.027552 26.271271 0.586644
6.057710 26.282955 0.611236
6.089796 26.294786 0.637645
6.112320 26.299515 0.657645
6.122777 26.298973 0.668044
6.203731 26.307329 0.743455
6.211137 26.308168 0.750628
6.216150 26.308781 0.755638
6.220877 26.309219 0.759860
6.240351 26.309916 0.777508
6.252322 26.312437 0.787904
6.368884 26.308449 0.895286
6.380233 26.306946 0.905983
6.462828 26.293909 0.975645
6.490465 26.292051 0.998426
6.552163 26.285278 1.042158
6.579613 26.282211 1.061468
6.595034 26.279770 1.072420
6.608468 26.278568 1.081826
6.638513 26.278416 1.102500
6.649559 26.278111 1.109178
6.760028 26.272820 1.167703
6.781641 26.272118 1.179106
6.811647 26.276997 1.194095
6.821176 26.278204 1.197900
6.920259 26.286297 1.225034
6.944248 26.289486 1.231589
6.955466 26.292727 1.234228
6.972613 26.297216 1.238373
7.005168 26.305252 1.246466
7.008392 26.305857 1.246549
7.019864 26.307911 1.246493
7.078630 26.316256 1.246665
7.138455 26.346605 1.242061
7.170598 26.356230 1.241050
7.284363 26.379829 1.202226
7.326666 26.400379 1.183955
7.342658 26.408075 1.177214
7.350792 26.410803 1.170232
7.369018 26.416975 1.154774
7.396278 26.436304 1.127060
7.441869 26.484364 1.073535
7.453797 26.498566 1.058791
7.480539 26.530487 1.027834
7.486935 26.538113 1.020138
7.494794 26.546957 0.996489
7.496922 26.550880 0.989380
7.511996 26.658445 0.902177
7.532117 26.772398 0.819441
7.532426 26.782738 0.808070
7.533179 26.792084 0.802284
7.540920 26.927841 0.766093
7.541467 26.937201 0.763613
7.565932 27.060934 0.722990
7.567157 27.067530 0.721908
7.574074 27.095903 0.718825
7.581069 27.122417 0.714238
7.601193 27.209658 0.696463
7.606268 27.228550 0.692158
7.612526 27.259909 0.682897
7.626120 27.332764 0.665290
7.641960 27.380697 0.660875
7.666736 27.446566 0.644772
7.669545 27.454418 0.643331
7.674818 27.476377 0.636308
7.680325 27.493597 0.632395
7.692752 27.531652 0.624043
7.701012 27.553106 0.617567
7.715529 27.624641 0.614349
7.718151 27.636269 0.614228
7.766266 27.738214 0.578739
7.768322 27.746426 0.578372
7.773798 27.768030 0.577619
7.775546 27.774815 0.577466
7.778394 27.791368 0.572830
7.808569 27.906857 0.532230
7.808858 27.910730 0.531446
7.809354 27.924812 0.529044
7.810008 27.938370 0.526589
7.813011 27.993315 0.518975
7.813883 28.097113 0.472853
7.809966 28.134510 0.458041
7.803458 28.190550 0.432615
7.801322 28.203503 0.423536
7.805348 28.211830 0.416078
7.796367 28.294962 0.356375
7.789670 28.323057 0.337295
7.781133 28.350256 0.319440
7.772513 28.377634 0.299053
7.769543 28.386942 0.288719
7.760087 28.408241 0.265692
7.758868 28.418484 0.253834
7.734107 28.517815 0.139651
7.733662 28.519972 0.137159
7.732035 28.525934 0.130326
7.721739 28.563957 0.071911
7.705188 28.624229 -0.040857
7.700439 28.636330 -0.063234
7.693503 28.652924 -0.103597
7.684563 28.672821 -0.151952
7.675673 28.697342 -0.211676
7.670367 28.711767 -0.250712
7.669041 28.716263 -0.262824
7.664780 28.730705 -0.314987
7.657747 28.741108 -0.359917
7.655379 28.747406 -0.386594
7.648232 28.767099 -0.469963
7.645642 28.774174 -0.503247
7.639231 28.782459 -0.543456
7.638453 28.785162 -0.556088
7.636253 28.789410 -0.576309
7.630152 28.798897 -0.640394
7.630722 28.804016 -0.670552
7.630132 28.804977 -0.677014
7.623703 28.815851 -0.744273
7.620807 28.825922 -0.803428
7.618245 28.829428 -0.825611
7.619672 28.833555 -0.846926
7.618380 28.836802 -0.866182
7.616670 28.841402 -0.889897
7.612596 28.850359 -0.958171
7.603757 28.861197 -1.048307
7.598166 28.883179 -1.183983
7.597274 28.886219 -1.212986
7.597682 28.889025 -1.235629
7.598451 28.896288 -1.286637
7.597568 28.896820 -1.293003
7.580923 28.909740 -1.406654
7.580681 28.913887 -1.430773
7.579978 28.920023 -1.460806
7.575003 28.924711 -1.492182
7.574007 28.926712 -1.503435
7.573452 28.927502 -1.510516
7.572300 28.929247 -1.525876
7.560775 28.934595 -1.600232
7.547524 28.943850 -1.678505
7.546604 28.944443 -1.683696
7.540614 28.947090 -1.720188
7.535653 28.950357 -1.748028
7.537135 28.958696 -1.782528
7.529492 28.964710 -1.829936
7.519063 28.969917 -1.891372
7.507724 28.977957 -1.953492
7.490924 28.992393 -2.056063
7.489789 28.993093 -2.063571
7.485811 29.007698 -2.151736
7.482777 29.019041 -2.205140
7.482567 29.023872 -2.224973
7.474875 29.029718 -2.268978
7.469995 29.044018 -2.339134
7.469366 29.044550 -2.342948
7.468559 29.045132 -2.348181
7.449390 29.062210 -2.461665
7.437835 29.073492 -2.533640
7.429619 29.081118 -2.586343
7.422092 29.082926 -2.614993
7.412847 29.086037 -2.648453
7.407868 29.096916 -2.696754
7.388497 29.105309 -2.773040
7.376216 29.116812 -2.841742
7.374856 29.118073 -2.849376
7.363164 29.130573 -2.912085
7.338400 29.145216 -3.009892
7.333148 29.149656 -3.034520
7.322673 29.154379 -3.071610
END_24
BEGIN_28
21.078979 12.465570 -3.544562
21.075684 12.468081 -3.509707
21.071365 12.467208 -3.482849
21.060829 12.463926 -3.433692
21.036745 12.449535 -3.343886
21.022253 12.440604 -3.290739
21.022816 12.448530 -3.264520
21.014799 12.448808 -3.209040
21.013458 12.448854 -3.199760
20.990282 12.449553 -3.040590
20.987507 12.448175 -3.027038
20.985458 12.447112 -3.017829
20.982132 12.445159 -3.006926
20.921223 12.390107 -2.855289
20.911646 12.381486 -2.832099
20.881939 12.360756 -2.745600
20.830925 12.325064 -2.605155
20.827223 12.322936 -2.593916
20.797947 12.304245 -2.533614
20.731796 12.261818 -2.396183
20.720951 12.257195 -2.369154
20.702324 12.249038 -2.325596
20.634640 12.218336 -2.204348
20.625101 12.220124 -2.179293
20.609604 12.220139 -2.152111
20.554678 12.218063 -2.069583
20.490110 12.211100 -2.001986
20.460785 12.207529 -1.973936
20.389441 12.196212 -1.922785
20.382908 12.196519 -1.917518
20.325773 12.198267 -1.876699
20.312958 12.198606 -1.867567
20.275803 12.198332 -1.848231
20.215906 12.197149 -1.821285
20.159037 12.195539 -1.798478
20.119112 12.193633 -1.786596
20.103819 12.193088 -1.782014
20.036564 12.189297 -1.767651
19.986671 12.185220 -1.762255
19.907228 12.178240 -1.756182
19.797617 12.172072 -1.763916
19.767418 12.170506 -1.765415
19.758411 12.169836 -1.766829
19.709150 12.164578 -1.774207
19.675196 12.160811 -1.779264
19.599895 12.149538 -1.789848
19.596701 12.149083 -1.790200
19.586454 12.147502 -1.791844
19.571817 12.146061 -1.794417
19.417095 12.129851 -1.825898
19.393425 12.126445 -1.831012
19.313437 12.116222 -1.844038
19.247601 12.105951 -1.853620
19.232847 12.102809 -1.855398
19.199581 12.095480 -1.859919
19.079788 12.082279 -1.885018
19.042288 12.079629 -1.890268
18.977570 12.068300 -1.895357
18.970135 12.067437 -1.896199
18.897537 12.058025 -1.905752
18.784536 12.044760 -1.918775
18.764210 12.040372 -1.920060
18.739656 12.033481 -1.920775
18.689449 12.019389 -1.922237
18.550266 11.987486 -1.917746
18.501926 11.980469 -1.917884
18.482876 11.977135 -1.917701
18.448765 11.969699 -1.919522
18.424269 11.960417 -1.919730
18.389261 11.952123 -1.909626
18.313046 11.941765 -1.888896
18.190304 11.904038 -1.852045
18.184090 11.901740 -1.850115
18.166784 11.895137 -1.844709
18.027836 11.842264 -1.792951
18.019737 11.838960 -1.789951
17.960253 11.788398 -1.770012
17.953074 11.782070 -1.764909
17.906334 11.749998 -1.732390
17.879158 11.730168 -1.725501
17.842339 11.707291 -1.713635
17.722174 11.611563 -1.688256
17.707354 11.599788 -1.682606
17.697609 11.591970 -1.678934
17.573557 11.490991 -1.659398
17.505045 11.418738 -1.666295
17.466774 11.378557 -1.675400
17.438467 11.348826 -1.681827
17.378927 11.286390 -1.695237
17.350533 11.257723 -1.700331
17.329533 11.233776 -1.707314
17.293558 11.192900 -1.720661
17.234091 11.126612 -1.755151
17.218567 11.109480 -1.763931
17.160774 11.045495 -1.794722
17.139412 11.022376 -1.811176
17.057253 10.932790 -1.868321
17.053019 10.928413 -1.870968
17.008696 10.885787 -1.891218
16.919796 10.800589 -1.929497
16.904373 10.785654 -1.937412
16.859819 10.717409 -1.991017
16.853235 10.708117 -1.998000
16.845778 10.697413 -2.005356
16.817316 10.654624 -2.035581
16.777975 10.596585 -2.081216
16.762680 10.572970 -2.100291
16.757505 10.564775 -2.106045
16.737690 10.521526 -2.141544
16.726913 10.487327 -2.172959
16.720762 10.467817 -2.190752
16.708534 10.444528 -2.208630
16.677515 10.385969 -2.255271
16.673649 10.376317 -2.263828
16.657223 10.335649 -2.301310
16.650873 10.324865 -2.309739
16.625656 10.281264 -2.340392
16.618513 10.269070 -2.349648
16.598839 10.223994 -2.388405
16.602596 10.204409 -2.413559
16.595114 10.180295 -2.436339
16.574684 10.119146 -2.482304
16.567123 10.095939 -2.499155
16.570852 10.031546 -2.561326
16.560507 10.004020 -2.580449
16.541155 9.949790 -2.613439
16.540873 9.942121 -2.619675
16.540890 9.936138 -2.623534
16.539814 9.878337 -2.660187
16.532467 9.778534 -2.720616
16.529152 9.724833 -2.750980
16.527712 9.704638 -2.762298
16.527285 9.691266 -2.767961
16.522667 9.559581 -2.823563
16.520796 9.511384 -2.844537
16.520880 9.486938 -2.851611
16.514017 9.457773 -2.856912
16.506332 9.397078 -2.870918
16.493011 9.293550 -2.897212
16.483004 9.255093 -2.904463
16.465290 9.182917 -2.913592
16.421015 9.040508 -2.929338
16.415918 9.023986 -2.931021
16.411264 9.012296 -2.931960
16.378859 8.908469 -2.942455
16.361027 8.854124 -2.952702
16.333311 8.769401 -2.968230
16.320084 8.721483 -2.977401
16.307459 8.678730 -2.989876
16.293032 8.629262 -3.003384
16.281277 8.581860 -3.016475
16.270113 8.489785 -3.042724
16.268419 8.475323 -3.046853
16.249723 8.328279 -3.095477
16.248993 8.314520 -3.100080
16.240093 8.164489 -3.150262
16.239286 8.147414 -3.155031
16.240141 8.139647 -3.156955
16.239206 8.133561 -3.158526
16.240175 8.127416 -3.160036
16.245047 8.097383 -3.169448
16.268042 7.936262 -3.220284
16.271765 7.912252 -3.227828
16.277845 7.883767 -3.236599
16.299191 7.820654 -3.255096
16.334215 7.706633 -3.284492
16.353806 7.658787 -3.296277
16.361526 7.633548 -3.302787
16.371948 7.599983 -3.309676
16.390324 7.561963 -3.316436
16.429508 7.479866 -3.334569
16.474606 7.386693 -3.355049
16.480618 7.376287 -3.357181
16.505085 7.333899 -3.365931
16.570160 7.222456 -3.384703
16.585375 7.196076 -3.390221
16.619473 7.139889 -3.401265
16.715836 7.008618 -3.417527
16.752117 6.958975 -3.424532
16.761066 6.946814 -3.425917
16.773806 6.928579 -3.428118
16.784941 6.913981 -3.429707
16.821487 6.872003 -3.433443
16.917578 6.760208 -3.443620
16.949650 6.723196 -3.445841
16.959408 6.712016 -3.446201
16.975918 6.694504 -3.446513
17.089102 6.585788 -3.446248
17.104235 6.571210 -3.446405
17.127028 6.549165 -3.447020
17.143696 6.532890 -3.447505
17.154097 6.523884 -3.447534
17.231913 6.456879 -3.447660
17.320192 6.381480 -3.444231
17.324003 6.378459 -3.444034
17.380991 6.333098 -3.441988
17.413513 6.308642 -3.440477
17.448505 6.282721 -3.436477
17.466154 6.270527 -3.434288
17.604273 6.174500 -3.420292
17.629154 6.157019 -3.418717
17.646566 6.145050 -3.416245
17.674873 6.126459 -3.412056
17.734240 6.087259 -3.404526
17.795647 6.049541 -3.396211
17.840628 6.022078 -3.389147
17.887337 5.994364 -3.381678
17.934385 5.969790 -3.373594
18.000357 5.935874 -3.359962
18.015932 5.927290 -3.356835
18.039461 5.914229 -3.352774
18.058136 5.905726 -3.349186
18.152058 5.850851 -3.333506
18.160786 5.845850 -3.331681
18.175680 5.839658 -3.328153
18.230984 5.807955 -3.316581
18.295906 5.756461 -3.305483
18.305407 5.748656 -3.304441
18.343918 5.690123 -3.306599
18.415205 5.582222 -3.309934
18.428741 5.559142 -3.311173
18.430832 5.555443 -3.311613
18.436718 5.518713 -3.320505
18.440294 5.494843 -3.326362
18.450068 5.425787 -3.344849
18.453098 5.394245 -3.353706
18.453785 5.384408 -3.357141
18.425928 5.272804 -3.406104
18.410555 5.209129 -3.431835
18.397366 5.154830 -3.454111
18.388491 5.119977 -3.469800
18.323193 4.996526 -3.533064
18.276415 4.906131 -3.574869
18.272144 4.897946 -3.578661
18.268265 4.892663 -3.581347
18.263418 4.885339 -3.584958
18.206327 4.798719 -3.629490
18.187601 4.770649 -3.642169
18.181932 4.762707 -3.645823
18.152090 4.720651 -3.665140
18.113764 4.666824 -3.689884
18.101803 4.649955 -3.698047
18.040699 4.564243 -3.736869
18.025463 4.542846 -3.746700
17.987335 4.486066 -3.772411
17.981838 4.476873 -3.776464
17.973404 4.462810 -3.782074
17.896288 4.334117 -3.834963
17.876133 4.300882 -3.848664
17.858128 4.264115 -3.863050
17.850533 4.248563 -3.869131
17.808247 4.163147 -3.896672
17.788303 4.122520 -3.911501
17.747864 4.022264 -3.946145
17.742260 4.008413 -3.950772
17.682812 3.848859 -4.002950
17.672371 3.822802 -4.011197
17.663258 3.800069 -4.018176
17.659737 3.791118 -4.021360
17.656206 3.778958 -4.025312
17.630215 3.692076 -4.053775
17.613686 3.638050 -4.071585
17.612165 3.631596 -4.073578
17.603460 3.596428 -4.084557
17.571518 3.472319 -4.118082
17.551563 3.394965 -4.140725
17.549032 3.385154 -4.143664
17.542566 3.352989 -4.152695
17.517725 3.229403 -4.187400
17.509100 3.186520 -4.199821
17.505430 3.168206 -4.204274
17.498457 3.133372 -4.212481
17.484077 2.970296 -4.249845
17.482512 2.952476 -4.254200
17.479422 2.918936 -4.262453
17.480165 2.902530 -4.265578
17.480810 2.871441 -4.271813
17.482864 2.777301 -4.288226
17.484806 2.746346 -4.293122
17.490047 2.662943 -4.306112
17.500231 2.591997 -4.314679
17.520996 2.503950 -4.322086
17.532890 2.453208 -4.326945
17.552208 2.372303 -4.331801
17.570864 2.292943 -4.338977
17.579924 2.259448 -4.341494
17.585180 2.240119 -4.342684
17.638081 2.083213 -4.347854
17.643076 2.070394 -4.347979
17.646202 2.062330 -4.348251
17.662556 2.020451 -4.348346
17.667715 2.009414 -4.347967
17.697721 1.944957 -4.346643
17.729851 1.883486 -4.343997
17.755505 1.839157 -4.341106
17.772161 1.809768 -4.341022
17.800234 1.760604 -4.339813
17.806517 1.749674 -4.339312
17.891489 1.614349 -4.330737
17.914997 1.574381 -4.328733
17.929306 1.550158 -4.327256
17.994396 1.454822 -4.318465
18.027733 1.393536 -4.315697
18.032223 1.384248 -4.315468
18.041187 1.366472 -4.313622
18.056400 1.334543 -4.313690
18.090685 1.261613 -4.315614
18.127413 1.165333 -4.320076
18.130409 1.158177 -4.320347
18.143999 1.126147 -4.320827
18.164328 1.042384 -4.325660
18.184536 0.957358 -4.332504
18.191547 0.936117 -4.333721
18.196405 0.915177 -4.335437
18.222158 0.805298 -4.342867
18.225275 0.795573 -4.343311
18.253061 0.694277 -4.349126
18.282404 0.586456 -4.357539
18.306204 0.536792 -4.358444
18.348549 0.449215 -4.359930
18.370569 0.403576 -4.361155
18.392351 0.358921 -4.360118
18.415026 0.332218 -4.356417
18.534302 0.190945 -4.344218
18.542675 0.179986 -4.343502
18.569723 0.145397 -4.338100
18.628136 0.090219 -4.324957
18.677494 0.033911 -4.314587
18.728407 -0.024144 -4.304090
18.743572 -0.041424 -4.301040
18.752005 -0.046486 -4.298882
18.811607 -0.087013 -4.285495
18.853992 -0.121682 -4.276058
18.869242 -0.134155 -4.272656
18.970055 -0.217488 -4.245414
19.017057 -0.248251 -4.232959
19.056063 -0.275659 -4.222567
19.096844 -0.304143 -4.210499
19.103514 -0.311181 -4.208434
19.153292 -0.364088 -4.191174
19.258430 -0.411209 -4.158948
19.279598 -0.425153 -4.152168
19.287212 -0.430563 -4.149704
19.362686 -0.484204 -4.125479
19.369293 -0.490600 -4.123247
19.382517 -0.502835 -4.116432
19.433819 -0.558951 -4.088601
19.460234 -0.588002 -4.075649
19.570053 -0.689773 -4.023994
19.604401 -0.721449 -4.006721
19.612375 -0.730835 -4.002459
19.619783 -0.736799 -3.998841
19.621569 -0.739475 -3.997816
19.625832 -0.745878 -3.995727
19.682835 -0.951273 -3.958830
19.696306 -1.003897 -3.953043
19.710539 -1.062650 -3.949190
19.709249 -1.066249 -3.949976
19.667530 -1.184055 -3.975520
19.653698 -1.215281 -3.983606
19.633488 -1.271209 -3.995922
19.600557 -1.361776 -4.023797
19.577467 -1.429153 -4.045328
19.570440 -1.446177 -4.051344
19.522734 -1.555250 -4.091172
19.471348 -1.667796 -4.143967
19.415087 -1.819012 -4.209796
19.403498 -1.849511 -4.224183
19.396141 -1.868530 -4.231845
19.394335 -1.873756 -4.233851
19.390970 -1.886093 -4.238167
19.363712 -1.981083 -4.273514
19.350790 -2.023848 -4.289742
19.328989 -2.177547 -4.336082
19.317368 -2.251608 -4.355191
19.306526 -2.308284 -4.370744
19.294510 -2.370840 -4.389118
19.290113 -2.393698 -4.394900
19.289162 -2.403797 -4.396957
19.284918 -2.519088 -4.417120
19.283861 -2.534618 -4.420080
19.277597 -2.622264 -4.435169
19.274321 -2.651599 -4.440316
19.280989 -2.696742 -4.442858
19.281788 -2.772880 -4.451941
19.282415 -2.822257 -4.456643
19.283285 -2.871405 -4.458690
19.277891 -2.886550 -4.461880
19.278172 -2.900993 -4.462471
19.278502 -2.913938 -4.463298
19.286091 -2.965505 -4.463479
19.287668 -3.026183 -4.467344
19.290638 -3.114732 -4.467531
19.292479 -3.173707 -4.467723
19.293762 -3.218175 -4.468723
19.294687 -3.246159 -4.468386
19.295855 -3.286562 -4.469285
19.297642 -3.329012 -4.469947
19.302437 -3.425893 -4.471103
19.309452 -3.540268 -4.461094
19.310337 -3.551431 -4.460021
19.313595 -3.593147 -4.456424
19.316126 -3.619092 -4.453948
19.324673 -3.710374 -4.448195
19.328949 -3.754721 -4.444355
19.335608 -3.812765 -4.438792
19.338385 -3.833609 -4.436598
19.339239 -3.840262 -4.436168
19.351418 -3.934337 -4.429131
19.356800 -3.968966 -4.426039
19.358528 -3.980026 -4.424993
19.379513 -4.116193 -4.416657
19.383007 -4.138046 -4.414311
19.397301 -4.209905 -4.405179
19.407331 -4.268579 -4.398552
19.416489 -4.323053 -4.394338
19.429926 -4.401798 -4.385791
19.464981 -4.528833 -4.365937
19.478949 -4.587359 -4.356298
19.485689 -4.608488 -4.352570
19.521832 -4.735471 -4.332338
19.530848 -4.762471 -4.327369
19.550791 -4.821997 -4.315798
19.566051 -4.864937 -4.307007
19.587217 -4.924707 -4.295432
19.612213 -4.984323 -4.281901
19.621016 -5.005476 -4.277712
19.651993 -5.067654 -4.262899
19.665073 -5.094588 -4.256648
19.708042 -5.182745 -4.235362
19.718317 -5.204191 -4.231167
19.743071 -5.256094 -4.221067
19.772503 -5.313960 -4.208985
19.784170 -5.336463 -4.203191
19.813189 -5.393773 -4.188735
19.822701 -5.416070 -4.183882
19.873455 -5.536289 -4.163576
19.882082 -5.556527 -4.159254
19.927246 -5.615341 -4.139406
19.940363 -5.643057 -4.133016
19.945131 -5.653393 -4.131170
19.994522 -5.771072 -4.111716
20.007160 -5.801255 -4.106881
20.026291 -5.849534 -4.099497
20.043331 -5.892404 -4.092684
20.055122 -5.920342 -4.088021
20.085377 -5.991252 -4.074674
20.104801 -6.054049 -4.065390
20.107552 -6.063240 -4.064483
20.130905 -6.135808 -4.056737
20.146029 -6.183929 -4.053154
20.153349 -6.216894 -4.051583
20.164591 -6.268105 -4.049846
20.172853 -6.304956 -4.047650
20.196043 -6.416369 -4.041479
20.200762 -6.441710 -4.040221
20.212915 -6.502841 -4.032757
20.221205 -6.555099 -4.026939
20.233437 -6.635378 -4.020908
20.235949 -6.652246 -4.019984
20.254509 -6.737706 -4.013535
20.266560 -6.793415 -4.009799
20.272884 -6.824083 -4.007837
20.287882 -6.898567 -4.006662
20.293213 -6.915405 -4.005897
20.306370 -6.955925 -4.002371
20.343765 -7.128881 -3.991930
20.345961 -7.137074 -3.991332
20.367800 -7.220205 -3.987978
20.387680 -7.294831 -3.983205
20.399570 -7.337913 -3.977783
20.410355 -7.376422 -3.972910
20.452921 -7.522874 -3.954123
20.465317 -7.565788 -3.949104
20.470444 -7.584162 -3.946985
20.472404 -7.591280 -3.946314
20.507626 -7.714570 -3.934464
20.520645 -7.759892 -3.929693
20.528111 -7.782542 -3.927125
20.546461 -7.873343 -3.919045
20.568655 -7.982849 -3.903385
20.578068 -7.994764 -3.900527
20.609600 -8.034692 -3.891853
20.612848 -8.044400 -3.890409
20.638630 -8.155048 -3.875654
20.645918 -8.186152 -3.869050
20.687031 -8.277387 -3.846687
20.687803 -8.279829 -3.846139
20.697073 -8.308370 -3.841056
20.718687 -8.353953 -3.832318
20.802258 -8.536146 -3.784367
20.804836 -8.541006 -3.783051
20.818356 -8.564701 -3.778132
20.837864 -8.600825 -3.765333
20.874058 -8.667197 -3.743508
20.878008 -8.673717 -3.741325
20.945147 -8.785472 -3.703949
20.948177 -8.790678 -3.701693
20.985344 -8.841054 -3.678854
21.012112 -8.884632 -3.659793
21.023090 -8.897821 -3.653652
21.093409 -8.982619 -3.616125
21.111490 -8.999492 -3.608206
21.116823 -9.005826 -3.605393
21.256842 -9.178384 -3.508064
21.313200 -9.219316 -3.479565
21.362789 -9.253688 -3.454347
21.373510 -9.270532 -3.444334
21.483198 -9.345741 -3.388952
21.499283 -9.355672 -3.381362
21.519684 -9.368143 -3.373404
21.560829 -9.393333 -3.356796
21.584690 -9.403565 -3.349294
21.788258 -9.489856 -3.285776
21.790730 -9.490898 -3.285224
21.803894 -9.495359 -3.282813
21.823280 -9.499783 -3.280298
21.826323 -9.500490 -3.280018
21.970991 -9.529621 -3.268683
21.991552 -9.538731 -3.264927
22.136541 -9.561878 -3.256181
22.178888 -9.566642 -3.254489
22.182335 -9.567097 -3.254679
22.226805 -9.573637 -3.256845
22.246881 -9.576627 -3.258008
22.273476 -9.577565 -3.260855
22.303915 -9.579696 -3.263655
22.354845 -9.584997 -3.267592
22.421736 -9.587834 -3.274545
22.454054 -9.588576 -3.278177
22.585972 -9.594616 -3.291982
22.587473 -9.594141 -3.290124
22.706570 -9.584214 -3.301736
22.850500 -9.569293 -3.317069
22.874804 -9.567065 -3.320073
22.882149 -9.566452 -3.321345
22.924711 -9.562976 -3.329160
23.013355 -9.558687 -3.344673
23.110523 -9.548400 -3.363117
23.205757 -9.539566 -3.387151
23.228571 -9.538076 -3.395890
23.236286 -9.537543 -3.398849
23.324696 -9.531274 -3.432772
23.424431 -9.522698 -3.463753
23.452465 -9.521671 -3.479166
23.462080 -9.521396 -3.484461
23.512600 -9.514905 -3.511891
23.515396 -9.514454 -3.513402
23.567402 -9.506287 -3.542742
23.594917 -9.502502 -3.561356
23.694923 -9.485265 -3.628632
23.713373 -9.482539 -3.643823
23.716354 -9.482021 -3.647126
23.825563 -9.458231 -3.737687
23.834696 -9.455328 -3.744636
23.848534 -9.452302 -3.756101
23.854609 -9.451004 -3.761404
23.899979 -9.434899 -3.796480
23.970797 -9.410167 -3.846988
23.983425 -9.404027 -3.854732
24.048880 -9.372416 -3.893726
24.088335 -9.356004 -3.919124
24.115274 -9.344837 -3.935540
24.224676 -9.287232 -3.998886
24.278715 -9.256596 -4.028446
24.291853 -9.249905 -4.033758
24.322796 -9.230324 -4.041757
24.340361 -9.220058 -4.046961
24.386641 -9.197108 -4.064033
24.437805 -9.170022 -4.081501
24.458832 -9.158447 -4.089472
24.466454 -9.154850 -4.091291
24.522976 -9.125652 -4.109287
24.575104 -9.112016 -4.139441
24.611736 -9.097221 -4.155315
24.637363 -9.089095 -4.163211
24.705683 -9.064509 -4.188479
24.773241 -9.045641 -4.221153
24.781374 -9.042629 -4.224041
24.835312 -9.027589 -4.237717
24.938986 -8.998670 -4.263988
24.962036 -8.991515 -4.270633
24.970009 -8.988901 -4.272767
25.024120 -8.975303 -4.281717
25.047077 -8.965418 -4.280888
25.162958 -8.926736 -4.289307
25.206108 -8.911612 -4.293799
25.221693 -8.908381 -4.297679
25.317883 -8.894082 -4.312376
25.378057 -8.881516 -4.323140
25.476568 -8.861516 -4.341615
25.506109 -8.857341 -4.344352
25.531097 -8.853538 -4.346306
25.569653 -8.848804 -4.350831
25.595364 -8.843647 -4.351187
25.689337 -8.825789 -4.350223
25.793789 -8.808292 -4.352475
25.813751 -8.805302 -4.352063
25.835630 -8.798755 -4.347322
25.866207 -8.790006 -4.339180
25.878864 -8.785675 -4.338506
26.005480 -8.753468 -4.337277
26.040600 -8.738028 -4.333706
26.077112 -8.722932 -4.330467
26.137720 -8.697968 -4.323892
26.148458 -8.692994 -4.322450
26.208055 -8.664680 -4.325461
26.276096 -8.631214 -4.328724
26.440077 -8.552259 -4.340020
26.460279 -8.539634 -4.336833
26.577507 -8.465672 -4.351438
26.626276 -8.437915 -4.357173
26.706032 -8.387699 -4.367100
26.793997 -8.322319 -4.379183
26.799994 -8.317840 -4.379508
26.826752 -8.300006 -4.380767
26.831161 -8.296701 -4.381006
26.864525 -8.271700 -4.384834
26.872574 -8.265456 -4.385787
26.945929 -8.208438 -4.401452
26.980949 -8.180838 -4.409034
26.996830 -8.168836 -4.412333
27.070211 -8.111619 -4.428053
27.153988 -8.041828 -4.447214
27.159227 -8.037457 -4.448984
27.209835 -7.994671 -4.466774
27.277134 -7.928365 -4.493752
27.351881 -7.866817 -4.519447
27.364540 -7.856501 -4.522058
27.390476 -7.835011 -4.533125
27.401175 -7.826046 -4.539323
27.465633 -7.783534 -4.567638
27.505209 -7.749419 -4.591313
27.512718 -7.742939 -4.597184
27.591251 -7.669368 -4.663907
27.634388 -7.628382 -4.711655
27.643463 -7.619745 -4.721717
27.698692 -7.566217 -4.801783
27.720922 -7.546124 -4.831949
27.751255 -7.519241 -4.885286
27.779779 -7.494575 -4.945133
27.784628 -7.490364 -4.954891
27.858212 -7.437060 -5.077899
27.896479 -7.409603 -5.169345
27.908533 -7.401392 -5.196651
27.961601 -7.365064 -5.306578
27.988976 -7.344533 -5.372351
28.034506 -7.305096 -5.499693
28.066952 -7.276809 -5.594860
28.081606 -7.264354 -5.630060
28.086176 -7.260528 -5.639623
28.098942 -7.250815 -5.663607
28.106806 -7.243637 -5.682023
28.111267 -7.238304 -5.697416
28.174234 -7.170277 -5.893195
28.205137 -7.138380 -5.960110
28.227945 -7.115199 -6.008714
28.273941 -7.068969 -6.095769
28.322130 -7.015757 -6.196585
28.326286 -7.010365 -6.206893
28.351435 -6.978813 -6.260789
28.370533 -6.956569 -6.288178
28.378380 -6.947295 -6.300484
28.423532 -6.887967 -6.379277
28.428816 -6.880938 -6.389311
28.488537 -6.793259 -6.513612
28.504078 -6.771460 -6.538712
28.511522 -6.757987 -6.554082
28.541918 -6.704317 -6.609182
28.556971 -6.680779 -6.633514
28.571274 -6.655735 -6.659238
28.575022 -6.649211 -6.665791
28.609518 -6.586230 -6.728919
28.653925 -6.510196 -6.790142
28.672585 -6.470808 -6.821402
28.690659 -6.433635 -6.848783
28.719919 -6.364795 -6.899143
28.744198 -6.302383 -6.944618
28.752308 -6.282310 -6.958060
28.765150 -6.251298 -6.977587
28.779341 -6.216064 -7.001356
28.818022 -6.114997 -7.069224
28.830551 -6.082338 -7.091041
28.840057 -6.053683 -7.109951
28.849651 -6.017219 -7.133624
28.865505 -5.960490 -7.167190
28.872183 -5.913567 -7.193775
28.873644 -5.905312 -7.198504
28.897835 -5.795273 -7.250292
28.915554 -5.702991 -7.299848
28.929045 -5.646162 -7.330942
28.930487 -5.636136 -7.336217
28.935680 -5.603170 -7.350703
28.917667 -5.532658 -7.374939
28.920380 -5.511225 -7.384202
28.936466 -5.383443 -7.439620
28.937866 -5.372262 -7.444466
28.944853 -5.316023 -7.468987
28.948294 -5.293360 -7.477234
28.947567 -5.242701 -7.494047
28.937088 -5.081387 -7.554999
28.927336 -4.944404 -7.587825
28.921005 -4.868768 -7.608330
28.919460 -4.859783 -7.610043
28.918621 -4.849495 -7.612214
28.917723 -4.841821 -7.613772
28.890383 -4.653509 -7.650799
28.876272 -4.552363 -7.667658
28.853977 -4.443676 -7.684056
28.836708 -4.352986 -7.693689
28.832560 -4.331736 -7.695923
28.828434 -4.312909 -7.697801
28.807825 -4.230640 -7.705435
28.805098 -4.219266 -7.706188
28.776180 -4.099946 -7.714792
28.760880 -4.046031 -7.718070
28.735891 -3.963986 -7.722596
28.706730 -3.857443 -7.720590
28.679991 -3.764942 -7.722258
28.668659 -3.729403 -7.722689
28.648300 -3.661732 -7.723749
28.616802 -3.550373 -7.719779
28.581100 -3.445113 -7.714845
28.566790 -3.398696 -7.712955
28.555857 -3.367238 -7.711804
28.541172 -3.329798 -7.708981
28.484589 -3.188870 -7.700953
28.464195 -3.105254 -7.698552
28.447035 -3.058455 -7.696177
28.396433 -2.916357 -7.685298
28.387430 -2.890888 -7.683361
28.379930 -2.868996 -7.681741
28.332790 -2.728796 -7.669194
28.322758 -2.698410 -7.666017
28.314718 -2.673058 -7.663426
28.271856 -2.532897 -7.649399
28.249413 -2.460843 -7.643224
28.246664 -2.451838 -7.642306
28.228655 -2.395261 -7.636423
28.177916 -2.248870 -7.622929
28.162504 -2.203934 -7.618415
28.118114 -2.064561 -7.605054
28.114351 -2.053457 -7.603948
28.103758 -2.022846 -7.601448
28.094213 -1.994943 -7.599081
28.041695 -1.840953 -7.585640
28.013039 -1.769609 -7.578499
27.941240 -1.582525 -7.550793
27.937603 -1.573428 -7.549837
27.932407 -1.559126 -7.548480
27.928923 -1.550101 -7.547567
27.901726 -1.491685 -7.540374
27.860235 -1.398763 -7.525308
27.854382 -1.386414 -7.523205
27.851179 -1.379627 -7.522021
27.785427 -1.254356 -7.498156
27.733702 -1.150496 -7.473386
27.712414 -1.117602 -7.463922
27.670883 -1.055423 -7.448466
27.654873 -1.029784 -7.442522
27.641245 -1.006237 -7.435186
27.621571 -0.980231 -7.425081
27.591293 -0.940025 -7.409288
27.523924 -0.833167 -7.373096
27.513689 -0.816747 -7.367385
27.495077 -0.791853 -7.357354
27.482361 -0.774947 -7.350507
27.452988 -0.740169 -7.334994
27.353197 -0.611690 -7.264373
27.321226 -0.579060 -7.242733
27.272743 -0.529501 -7.209762
27.237663 -0.491358 -7.181186
27.173071 -0.419997 -7.126233
27.156385 -0.402183 -7.112142
27.148712 -0.393170 -7.105523
27.106594 -0.356761 -7.071379
27.085123 -0.338098 -7.053738
27.054283 -0.309687 -7.024761
26.995188 -0.256070 -6.971101
26.976381 -0.240134 -6.954272
26.939112 -0.212758 -6.921845
26.819002 -0.118428 -6.802618
26.807772 -0.111535 -6.791978
26.767988 -0.086519 -6.752481
26.745541 -0.072066 -6.729174
26.686903 -0.040308 -6.669974
26.645370 -0.019930 -6.628639
26.604897 0.000065 -6.588317
26.545130 0.032963 -6.520569
26.453810 0.075637 -6.424362
26.418533 0.094764 -6.386545
26.402361 0.104231 -6.367169
26.332375 0.135553 -6.285873
26.300709 0.153185 -6.248175
26.289085 0.159017 -6.235818
26.278847 0.164418 -6.224325
26.265093 0.168724 -6.209403
26.216043 0.183639 -6.158041
26.146421 0.210980 -6.083773
26.141037 0.212817 -6.078090
26.086718 0.234699 -6.008939
26.044380 0.250301 -5.960167
25.979273 0.256295 -5.887907
25.970959 0.257049 -5.878738
25.894609 0.284325 -5.791462
25.856533 0.292079 -5.748826
25.853640 0.292707 -5.745398
25.825790 0.300057 -5.712254
25.818396 0.301483 -5.703510
25.772562 0.310644 -5.647851
25.767838 0.311790 -5.642090
25.647312 0.337463 -5.510308
25.620922 0.342725 -5.482976
25.602169 0.345802 -5.463533
25.564390 0.354268 -5.424443
25.548798 0.357405 -5.408296
25.462250 0.375197 -5.316911
25.452360 0.376228 -5.306421
25.427887 0.379567 -5.275788
25.359991 0.396968 -5.191002
25.324678 0.408166 -5.146959
25.318274 0.409833 -5.140485
25.297161 0.417924 -5.119963
25.269743 0.425157 -5.092276
25.169754 0.456134 -4.971148
25.142780 0.464704 -4.938548
25.123909 0.470889 -4.915805
25.101795 0.486668 -4.892239
25.088024 0.495890 -4.879343
25.012148 0.547008 -4.807385
24.933743 0.600424 -4.733283
24.925282 0.605635 -4.726893
24.877155 0.660861 -4.703246
24.793402 0.758028 -4.662615
24.786226 0.765779 -4.660244
24.779116 0.772689 -4.659391
24.755531 0.795610 -4.656549
24.729593 0.837324 -4.667397
24.681585 0.914875 -4.687768
24.616425 0.996216 -4.744032
24.606007 1.009244 -4.752997
24.600657 1.021583 -4.765311
24.589849 1.037762 -4.793070
24.542639 1.113443 -4.912677
24.533484 1.124688 -4.937005
24.510403 1.153086 -4.998458
24.488836 1.179975 -5.056822
24.483339 1.187248 -5.071557
24.483030 1.189287 -5.076311
24.479061 1.201606 -5.114454
24.471169 1.223772 -5.186484
24.463280 1.248405 -5.266838
24.462669 1.249879 -5.271598
24.447838 1.277997 -5.375484
24.432703 1.309161 -5.485414
24.443609 1.339282 -5.602657
24.453039 1.364880 -5.702341
24.456945 1.374673 -5.737165
24.469650 1.406697 -5.851792
24.508236 1.446046 -5.996054
24.511650 1.449651 -6.009254
24.517946 1.456261 -6.029921
24.530680 1.469629 -6.071797
24.550379 1.490330 -6.138323
24.591906 1.526628 -6.254740
24.659313 1.585940 -6.421082
24.666204 1.592285 -6.438901
24.684458 1.606966 -6.479952
24.688883 1.610525 -6.489935
24.727859 1.641730 -6.562494
24.744450 1.663769 -6.615716
24.789825 1.712544 -6.731512
24.795092 1.718094 -6.742975
24.810818 1.734825 -6.777559
24.878153 1.805256 -6.904447
24.912899 1.842113 -6.970974
24.927923 1.857782 -6.995437
24.930597 1.860746 -7.000093
24.996750 1.932943 -7.100607
25.031294 1.970724 -7.154209
25.064754 2.008090 -7.207333
25.084051 2.029326 -7.237479
25.102571 2.049678 -7.265842
25.143055 2.094365 -7.319199
25.159374 2.113648 -7.342380
25.178198 2.135792 -7.368298
25.232185 2.210289 -7.456521
25.252800 2.238268 -7.489618
25.310553 2.315109 -7.572229
25.317413 2.324335 -7.582157
25.359436 2.380599 -7.641487
25.385159 2.422877 -7.686893
25.393259 2.435939 -7.699689
25.432558 2.494734 -7.756886
25.463251 2.544616 -7.805789
25.466436 2.550091 -7.811183
25.472017 2.559563 -7.820117
25.478539 2.570189 -7.828743
25.504541 2.612489 -7.862807
25.531118 2.663271 -7.904274
25.550144 2.699455 -7.933810
25.583340 2.761347 -7.981034
25.605326 2.801225 -8.008446
25.651123 2.908558 -8.083691
25.668497 2.948365 -8.109806
25.704063 3.032960 -8.165474
25.718397 3.072472 -8.191758
25.756023 3.173505 -8.254716
25.760366 3.187621 -8.263603
25.767839 3.210168 -8.275275
25.770342 3.262395 -8.303901
25.788687 3.324016 -8.336025
25.805956 3.383257 -8.368217
25.829578 3.432809 -8.394311
25.836313 3.468187 -8.413860
25.857317 3.568055 -8.460736
25.870247 3.619951 -8.484922
25.871462 3.639776 -8.494482
25.872313 3.648103 -8.498468
25.873053 3.654675 -8.501364
25.876995 3.694920 -8.519118
25.884014 3.758248 -8.544250
25.885565 3.778015 -8.552127
25.887686 3.804864 -8.562774
25.891504 3.920928 -8.609118
25.892187 3.938151 -8.615639
25.891268 3.953117 -8.621401
25.889362 3.973653 -8.629350
25.882874 4.058889 -8.658274
25.879797 4.080707 -8.665728
25.863039 4.164059 -8.694375
25.844496 4.264201 -8.724608
25.841013 4.284554 -8.730002
25.829668 4.321087 -8.739675
25.806103 4.386672 -8.757030
25.771282 4.488368 -8.780313
25.734121 4.575705 -8.800266
25.718102 4.614359 -8.808228
25.705557 4.641059 -8.812691
25.700497 4.651004 -8.814339
25.694777 4.662807 -8.815837
25.648479 4.747244 -8.826477
25.632324 4.775064 -8.829971
25.606644 4.825367 -8.829336
25.600649 4.836816 -8.829484
25.590776 4.853265 -8.829558
25.566614 4.896259 -8.829931
25.544022 4.928327 -8.829706
25.533155 4.939651 -8.829309
25.506819 4.969851 -8.828538
25.422302 5.076564 -8.815064
25.382496 5.127656 -8.807789
25.376833 5.134634 -8.806755
25.344482 5.166972 -8.800858
25.249472 5.270368 -8.772234
25.228294 5.293603 -8.764579
25.198387 5.315300 -8.754314
25.132305 5.365140 -8.724534
25.118423 5.376347 -8.718121
