BEGIN_18
-19.612749 16.403801 -4.796080
-19.618656 16.399641 -4.806087
-19.653614 16.394388 -4.859532
-19.659061 16.393120 -4.867995
-19.669600 16.391214 -4.884200
-19.677675 16.390768 -4.896320
-19.690565 16.387508 -4.916440
-19.715614 16.383379 -4.956524
-19.728331 16.380388 -4.977152
-19.738878 16.376062 -4.994825
-19.795410 16.363821 -5.086185
-19.825840 16.357235 -5.135497
-19.841415 16.354380 -5.160582
-19.842373 16.354183 -5.162480
-19.847277 16.353251 -5.172186
-19.889204 16.343868 -5.255668
-19.902308 16.340786 -5.283514
-19.918549 16.336901 -5.318073
-19.978991 16.323757 -5.445971
-20.001917 16.318020 -5.502171
-20.005104 16.316277 -5.510617
-20.011206 16.314604 -5.525672
-20.027571 16.310665 -5.563206
-20.040792 16.307556 -5.593481
-20.051428 16.305525 -5.617534
-20.061985 16.303070 -5.641697
-20.145752 16.284874 -5.826698
-20.148300 16.284054 -5.832503
-20.163609 16.282852 -5.864910
-20.219830 16.274588 -6.002369
-20.292934 16.263449 -6.182986
-20.294018 16.263113 -6.185893
-20.295074 16.262661 -6.188823
-20.333080 16.252989 -6.288881
-20.416164 16.233212 -6.502832
-20.434856 16.229609 -6.548007
-20.436951 16.229181 -6.553089
-20.503885 16.218618 -6.712483
-20.563515 16.208021 -6.858472
-20.677168 16.197803 -7.106078
-20.700127 16.195196 -7.153498
-20.700989 16.195055 -7.155306
-20.703375 16.194672 -7.160050
-20.751591 16.185287 -7.256990
-20.808542 16.171364 -7.373248
-20.840425 16.166611 -7.430581
-20.842300 16.166431 -7.433891
-20.844793 16.165842 -7.438507
-20.887697 16.157907 -7.512304
-20.903067 16.154510 -7.539044
-20.908018 16.153273 -7.547735
-20.978497 16.130476 -7.671804
-21.090942 16.105335 -7.841163
-21.144661 16.097015 -7.912674
-21.150560 16.095659 -7.920704
-21.194206 16.083841 -7.980865
-21.196486 16.083073 -7.984070
-21.217402 16.076008 -8.013472
-21.234121 16.070087 -8.037086
-21.259802 16.061115 -8.073063
-21.269466 16.058632 -8.084496
-21.282990 16.054323 -8.100773
-21.292000 16.051363 -8.111651
-21.339968 16.035597 -8.169583
-21.350590 16.031540 -8.182606
-21.372261 16.022705 -8.209362
-21.415682 16.005005 -8.262968
-21.440418 15.994196 -8.293755
-21.477158 15.980741 -8.333215
-21.506977 15.969240 -8.365396
-21.522295 15.962661 -8.382105
-21.537123 15.955327 -8.398528
-21.542738 15.952580 -8.404741
-21.576265 15.936283 -8.441311
-21.650055 15.899529 -8.522014
-21.699274 15.877484 -8.569873
-21.723175 15.866350 -8.593207
-21.741888 15.856533 -8.611712
-21.772549 15.840684 -8.640913
-21.819389 15.812930 -8.686176
-21.890867 15.772051 -8.748323
-21.904940 15.764324 -8.760503
-21.906328 15.763393 -8.761736
-21.907637 15.762532 -8.762837
-21.910542 15.760467 -8.765309
-21.960478 15.725011 -8.807801
-22.023466 15.678555 -8.861660
-22.060287 15.654062 -8.887367
-22.150562 15.585776 -8.951147
-22.157949 15.580362 -8.955979
-22.160763 15.577913 -8.957851
-22.183777 15.557339 -8.973204
-22.207838 15.536780 -8.987665
-22.217932 15.528050 -8.993733
-22.246227 15.502610 -9.010779
-22.248127 15.500662 -9.011932
-22.297121 15.450432 -9.041644
-22.312967 15.435470 -9.051213
-22.322186 15.426640 -9.056784
-22.366268 15.385503 -9.081012
-22.380507 15.371664 -9.088964
-22.382572 15.369793 -9.089790
-22.453579 15.294003 -9.126608
-22.457991 15.289593 -9.128309
-22.485231 15.259852 -9.141522
-22.506006 15.234536 -9.151667
-22.510447 15.229079 -9.154628
-22.576305 15.156807 -9.181342
-22.585224 15.145306 -9.185119
-22.599115 15.128242 -9.189710
-22.622248 15.099375 -9.197311
-22.624641 15.096303 -9.198089
-22.644495 15.070815 -9.204545
-22.670181 15.037969 -9.212067
-22.681339 15.020883 -9.215061
-22.695024 14.999907 -9.218606
-22.700583 14.990939 -9.220181
-22.736921 14.934539 -9.227702
-22.741520 14.927374 -9.228651
-22.754532 14.907140 -9.231068
-22.770172 14.878871 -9.233454
-22.803190 14.816206 -9.238093
-22.817535 14.788994 -9.239933
-22.827642 14.765000 -9.240894
-22.829575 14.760905 -9.240538
-22.863844 14.682819 -9.240932
-22.874166 14.660165 -9.240092
-22.888916 14.614295 -9.237478
-22.891066 14.607614 -9.237034
-22.896473 14.592803 -9.236284
-22.913815 14.545143 -9.233847
-22.916035 14.539350 -9.233281
-22.920425 14.520082 -9.231042
-22.931309 14.472474 -9.225130
-22.931749 14.470693 -9.224922
-22.941011 14.433287 -9.220524
-22.947184 14.408171 -9.217556
-22.948305 14.404038 -9.216743
-22.962008 14.318371 -9.201434
-22.976437 14.199276 -9.178304
-22.980621 14.162688 -9.170952
-22.981327 14.136375 -9.164897
-22.983267 14.095615 -9.156522
-22.989231 14.002230 -9.131531
-22.985046 13.921840 -9.107280
-22.982555 13.854074 -9.087725
-22.978060 13.813965 -9.075072
-22.974918 13.781910 -9.063024
-22.962776 13.654745 -9.015307
-22.962397 13.650368 -9.013508
-22.957310 13.605929 -8.993271
-22.944571 13.492338 -8.940571
-22.939768 13.459448 -8.925012
-22.938913 13.453370 -8.922029
-22.937237 13.445116 -8.918113
-22.927221 13.394916 -8.893465
-22.915634 13.331349 -8.857466
-22.910858 13.311069 -8.845909
-22.905972 13.290928 -8.834314
-22.895031 13.245403 -8.807738
-22.894398 13.242732 -8.806182
-22.878702 13.185995 -8.772482
-22.866188 13.140736 -8.745601
-22.864435 13.133809 -8.740739
-22.861591 13.122513 -8.732813
-22.844780 13.072865 -8.696768
-22.838568 13.055146 -8.683841
-22.814472 12.986637 -8.633853
-22.804441 12.958276 -8.613201
-22.801729 12.949669 -8.605573
-22.796989 12.937874 -8.595236
-22.792917 12.927680 -8.586160
-22.787931 12.915771 -8.575497
-22.779671 12.896095 -8.557871
-22.733210 12.784763 -8.456750
-22.732458 12.782994 -8.455138
-22.730179 12.778152 -8.450676
-22.704309 12.719557 -8.386981
-22.698950 12.707387 -8.373670
-22.665302 12.637252 -8.296060
-22.647514 12.602690 -8.258112
-22.594286 12.493856 -8.121655
-22.572172 12.448898 -8.065250
-22.567627 12.439820 -8.053836
-22.556904 12.417735 -8.023181
-22.546640 12.396066 -7.990844
-22.541756 12.386440 -7.976413
-22.524590 12.350755 -7.923119
-22.493242 12.286169 -7.826604
-22.491144 12.282543 -7.821112
-22.478592 12.258011 -7.784313
-22.451199 12.196406 -7.675447
-22.443779 12.180288 -7.646908
-22.432791 12.157902 -7.612535
-22.421415 12.139947 -7.584752
-22.396120 12.107205 -7.533523
-22.371050 12.070938 -7.462502
-22.329174 12.026919 -7.375105
-22.322147 12.017538 -7.357128
-22.313585 12.006000 -7.334074
-22.304384 11.993560 -7.308830
-22.271826 11.949450 -7.214825
-22.267174 11.943141 -7.201241
-22.265453 11.941211 -7.197079
-22.264778 11.940513 -7.195574
-22.263224 11.938526 -7.191294
-22.233549 11.899695 -7.107680
-22.228514 11.893305 -7.093915
-22.217056 11.878299 -7.056361
-22.198715 11.851388 -6.993831
-22.177084 11.810086 -6.895440
-22.172029 11.800473 -6.873047
-22.171120 11.798853 -6.869275
-22.160076 11.779175 -6.823435
-22.145409 11.742414 -6.737834
-22.140379 11.729828 -6.708533
-22.139002 11.726117 -6.698713
-22.135134 11.716445 -6.674040
-22.133368 11.710032 -6.657448
-22.130953 11.702847 -6.638894
-22.129877 11.699721 -6.631149
-22.129114 11.697025 -6.624450
-22.113945 11.643420 -6.491245
-22.106432 11.616262 -6.422493
-22.102585 11.603478 -6.392427
-22.099079 11.591444 -6.363665
-22.098261 11.587565 -6.354972
-22.093895 11.563661 -6.295861
-22.088757 11.535072 -6.225148
-22.088503 11.532890 -6.219723
-22.088007 11.528628 -6.209135
-22.084339 11.501953 -6.145853
-22.077532 11.467507 -6.072630
-22.077177 11.465533 -6.068288
-22.070982 11.422498 -5.976330
-22.069229 11.413013 -5.956172
-22.065140 11.392387 -5.913988
-22.060530 11.368633 -5.865381
-22.048725 11.320178 -5.780507
-22.045496 11.306320 -5.755518
-22.042400 11.293669 -5.733803
-22.038242 11.280324 -5.710928
-22.037916 11.279205 -5.708845
-22.037384 11.277350 -5.705703
-22.028051 11.243357 -5.645813
-22.013121 11.194635 -5.570373
-22.012589 11.192972 -5.567940
-22.012014 11.191052 -5.564968
-21.992344 11.122792 -5.464544
-21.988014 11.105037 -5.438118
-21.987118 11.090532 -5.415660
-21.986912 11.088846 -5.413333
-21.986994 11.087696 -5.411679
-21.985596 11.080201 -5.401475
-21.978788 11.030290 -5.332775
-21.969181 10.990013 -5.278574
-21.968048 10.981966 -5.267508
-21.964842 10.956936 -5.232993
-21.962286 10.936452 -5.207176
-21.954618 10.872774 -5.135976
-21.952921 10.786727 -5.035864
-21.953043 10.741803 -4.992333
-21.952322 10.735301 -4.986222
-21.951187 10.727496 -4.978955
-21.941029 10.650112 -4.913413
-21.937954 10.622641 -4.889997
-21.938028 10.620737 -4.888296
-21.938299 10.619236 -4.886893
-21.938644 10.617723 -4.885460
-21.939766 10.614423 -4.882231
-21.965689 10.534879 -4.809842
-21.969042 10.519175 -4.795989
-21.972248 10.508242 -4.788301
-21.980848 10.482578 -4.774850
-21.983593 10.476217 -4.771442
-21.987471 10.468600 -4.767293
-22.006132 10.431379 -4.747041
-22.013477 10.420437 -4.740863
-22.020752 10.409152 -4.734529
-22.024691 10.403690 -4.732233
-22.030464 10.397351 -4.731784
-22.032824 10.395072 -4.731684
-22.036018 10.391752 -4.731483
-22.059010 10.363416 -4.728875
-22.094488 10.341409 -4.730543
-22.142317 10.309391 -4.732147
-22.146723 10.306499 -4.732418
-22.172297 10.296703 -4.736576
-22.195967 10.288074 -4.742282
-22.200180 10.286674 -4.743876
-22.210247 10.283025 -4.747634
-22.250692 10.259947 -4.761204
-22.296976 10.250283 -4.779804
-22.325502 10.243868 -4.790793
-22.447042 10.225229 -4.840464
-22.470261 10.221699 -4.850215
-22.475828 10.220965 -4.853611
-22.478891 10.220278 -4.855452
-22.483292 10.219334 -4.858101
-22.595470 10.206737 -4.926764
-22.710152 10.193857 -4.996963
-22.712400 10.193499 -4.998326
-22.714706 10.193110 -4.999727
-22.727880 10.192647 -5.007890
-22.740831 10.191751 -5.016723
-22.770668 10.189857 -5.041268
-22.893518 10.180778 -5.142301
-22.923304 10.178778 -5.166801
-22.965498 10.175715 -5.202691
-22.990438 10.172538 -5.223861
-23.010002 10.170380 -5.240478
-23.034067 10.167147 -5.263562
-23.035997 10.167324 -5.263415
-23.036560 10.166670 -5.265956
-23.104956 10.157336 -5.331566
-23.227800 10.137586 -5.459764
-23.235466 10.136241 -5.468152
-23.275946 10.131634 -5.512457
-23.305010 10.128517 -5.543538
-23.314550 10.127048 -5.553737
-23.353235 10.121122 -5.601009
-23.405802 10.114259 -5.665119
-23.430323 10.110690 -5.695064
-23.508152 10.097535 -5.796360
-23.522753 10.096074 -5.815260
-23.572819 10.090028 -5.883861
-23.609673 10.085041 -5.936313
-23.657122 10.077531 -6.003985
-23.661737 10.076410 -6.010616
-23.692413 10.068422 -6.054772
-23.696690 10.067307 -6.061085
-23.740665 10.055827 -6.127385
-23.776676 10.045506 -6.181799
-23.778250 10.045069 -6.184176
-23.810606 10.034890 -6.233184
-23.832924 10.027792 -6.267210
-23.847265 10.023119 -6.289908
-23.880459 10.011991 -6.341337
-23.911102 10.001591 -6.391508
-23.929384 9.995364 -6.421918
-23.948832 9.987316 -6.454400
-24.011169 9.959354 -6.558717
-24.012981 9.958537 -6.561796
-24.019030 9.955832 -6.571823
-24.055452 9.939488 -6.632834
-24.123772 9.908760 -6.746950
-24.138353 9.901167 -6.771831
-24.178549 9.882477 -6.834372
-24.180218 9.881675 -6.837036
-24.196424 9.873870 -6.862888
-24.202795 9.870787 -6.873048
-24.235268 9.855023 -6.924570
-24.307669 9.819122 -7.040400
-24.359797 9.795176 -7.118424
-24.364981 9.792449 -7.127247
-24.507792 9.728289 -7.338164
-24.514244 9.725403 -7.347259
-24.546734 9.709599 -7.393092
-24.550552 9.707337 -7.398486
-24.570101 9.695457 -7.426118
-24.583775 9.687602 -7.444365
-24.604155 9.674365 -7.473034
-24.629080 9.659708 -7.504527
-24.672348 9.626566 -7.560948
-24.703611 9.602558 -7.601266
-24.716963 9.591562 -7.618493
-24.735186 9.576120 -7.642003
-24.736534 9.575408 -7.643034
-24.748314 9.563908 -7.657752
-24.785307 9.528933 -7.701127
-24.789833 9.524645 -7.706450
-24.813267 9.502325 -7.734007
-24.825073 9.490371 -7.747899
-24.828764 9.486647 -7.752158
-24.844206 9.470296 -7.769909
-24.875566 9.433157 -7.807381
-24.962751 9.335590 -7.900598
-24.977345 9.319570 -7.915617
-25.014328 9.276661 -7.954543
-25.029032 9.260407 -7.968282
-25.033621 9.255288 -7.972569
-25.049492 9.237510 -7.987535
-25.083868 9.196579 -8.019916
-25.122934 9.147623 -8.056684
-25.161280 9.098974 -8.092768
-25.173811 9.083099 -8.104514
-25.189449 9.058978 -8.119074
-25.197651 9.046683 -8.126163
-25.275787 8.933428 -8.187850
-25.324673 8.859516 -8.226991
-25.359938 8.806917 -8.253712
-25.433855 8.691653 -8.310314
-25.457285 8.656156 -8.326335
-25.475580 8.625907 -8.338541
-25.549807 8.503743 -8.386677
-25.559763 8.486135 -8.393063
-25.582071 8.442701 -8.407141
-25.592716 8.422585 -8.412940
-25.594147 8.419808 -8.413712
-25.617456 8.374537 -8.426305
-25.643057 8.324988 -8.439817
-25.695080 8.219546 -8.465568
-25.704521 8.200829 -8.469555
-25.740580 8.126475 -8.487816
-25.807194 7.993469 -8.513749
-25.869389 7.872175 -8.532823
-25.891195 7.830136 -8.539860
-25.904352 7.805400 -8.542916
-25.923626 7.769318 -8.547421
-25.942430 7.736436 -8.552239
-25.957596 7.709759 -8.556344
-25.963034 7.699722 -8.557736
-26.035553 7.565867 -8.576277
-26.049135 7.540612 -8.579719
-26.102695 7.441913 -8.591874
-26.107162 7.433547 -8.593099
-26.123135 7.403708 -8.597492
-26.141039 7.371168 -8.600738
-26.208158 7.248103 -8.613584
-26.212938 7.239410 -8.614361
-26.249182 7.177277 -8.620934
-26.255400 7.166132 -8.622186
-26.266987 7.145978 -8.623395
-26.330700 7.035979 -8.629370
-26.365726 6.974524 -8.632392
-26.432455 6.859797 -8.635281
-26.451853 6.827216 -8.635185
-26.468296 6.798677 -8.634829
-26.469662 6.796241 -8.634878
-26.478224 6.780093 -8.634950
-26.487181 6.763200 -8.635024
-26.500500 6.738338 -8.635203
-26.560165 6.629578 -8.631502
-26.658276 6.452528 -8.622335
-26.668581 6.434127 -8.621039
-26.680368 6.413248 -8.619260
-26.682070 6.410189 -8.618990
-26.715546 6.350616 -8.613850
-26.716949 6.347936 -8.613576
-26.781210 6.225796 -8.601217
-26.820868 6.149967 -8.594296
-26.879496 6.033398 -8.583900
-26.886833 6.019198 -8.582006
-26.891201 6.009417 -8.580727
-26.914005 5.959019 -8.573409
-26.933104 5.915865 -8.568290
-26.954601 5.866994 -8.562831
-26.990255 5.781156 -8.552456
-26.998192 5.762227 -8.550027
-27.035894 5.660966 -8.536327
-27.068810 5.572322 -8.524643
-27.069450 5.570526 -8.524405
-27.112082 5.452402 -8.508953
-27.116049 5.439466 -8.506999
-27.122036 5.420122 -8.503881
-27.169294 5.270189 -8.476896
-27.170984 5.264511 -8.475838
-27.172255 5.258808 -8.474614
-27.184208 5.206234 -8.462461
-27.220720 5.041152 -8.427952
-27.230793 4.990289 -8.416159
-27.234987 4.963695 -8.409693
-27.236658 4.953324 -8.407114
-27.238213 4.943021 -8.404794
-27.243122 4.911223 -8.397437
-27.257273 4.795568 -8.366635
-27.262436 4.707457 -8.341242
-27.263346 4.695982 -8.336987
-27.269037 4.618729 -8.313434
-27.271185 4.554800 -8.293324
-27.273050 4.509690 -8.277740
-27.271357 4.461979 -8.261031
-27.270489 4.420641 -8.244084
-27.269085 4.395377 -8.233926
-27.268219 4.379479 -8.227456
-27.263506 4.292483 -8.192068
-27.261753 4.276446 -8.185241
-27.254236 4.205693 -8.154597
-27.251482 4.181940 -8.145032
-27.244940 4.113821 -8.112091
-27.241882 4.082372 -8.097037
-27.241379 4.077141 -8.094536
-27.240068 4.067927 -8.089997
-27.236208 4.040422 -8.076321
-27.229301 4.001040 -8.056643
-27.229214 3.999647 -8.055350
-27.216209 3.938728 -8.024606
-27.204424 3.878344 -7.988906
-27.202839 3.869852 -7.983544
-27.187136 3.789361 -7.932467
-27.185442 3.780644 -7.926938
-27.178558 3.751826 -7.908195
-27.175282 3.738260 -7.899504
-27.169540 3.714296 -7.884007
-27.154434 3.658683 -7.847939
-27.147940 3.633747 -7.830299
-27.147163 3.631139 -7.828422
-27.129528 3.571178 -7.785329
-27.107494 3.493128 -7.724449
-27.099993 3.468738 -7.706417
-27.080561 3.401152 -7.649032
-27.074089 3.378140 -7.628708
-27.069479 3.361706 -7.614199
-27.056416 3.318834 -7.575939
-27.053425 3.309850 -7.567823
-27.047653 3.292526 -7.552167
-27.044565 3.283291 -7.543819
-27.027300 3.229635 -7.491756
-27.011404 3.180265 -7.443850
-26.999357 3.142216 -7.405697
-26.988747 3.111351 -7.374387
-26.984478 3.098943 -7.361799
-26.981936 3.090852 -7.352277
-26.980145 3.085157 -7.345572
-26.975914 3.073304 -7.331418
-26.964283 3.041110 -7.292916
-26.927820 2.936129 -7.158862
-26.903072 2.867689 -7.062469
-26.888783 2.825652 -6.997943
-26.875526 2.787344 -6.939005
-26.856668 2.731079 -6.845793
-26.849464 2.711019 -6.812264
-26.842375 2.692587 -6.781168
-26.836100 2.675935 -6.750978
-26.819483 2.634238 -6.674733
-26.814751 2.622298 -6.652647
-26.793436 2.569511 -6.554724
-26.779421 2.533513 -6.484564
-26.767593 2.505067 -6.428540
-26.765434 2.499714 -6.418047
-26.757992 2.482693 -6.384243
-26.754120 2.473749 -6.366191
-26.751011 2.466390 -6.350756
-26.747465 2.458196 -6.333499
-26.723015 2.401675 -6.214519
-26.704243 2.360398 -6.126858
-26.703697 2.358824 -6.123657
-26.701756 2.354542 -6.114566
-26.687216 2.322966 -6.050514
-26.686737 2.321689 -6.048011
-26.681654 2.310742 -6.025769
-26.677435 2.301684 -6.007665
-26.624439 2.187667 -5.779868
-26.609138 2.155409 -5.721611
-26.587587 2.111256 -5.654018
-26.564194 2.063118 -5.580384
-26.561678 2.055995 -5.570050
-26.556351 2.046182 -5.554708
-26.542669 2.021063 -5.514125
-26.540531 2.016914 -5.507506
-26.537043 2.012539 -5.499681
-26.522802 1.997267 -5.470953
-26.504555 1.977772 -5.440637
-26.480743 1.952386 -5.405985
-26.442892 1.908187 -5.347365
-26.441610 1.903983 -5.342894
-26.439791 1.899770 -5.338155
-26.379080 1.823801 -5.239466
-26.366802 1.807712 -5.219698
-26.364969 1.805102 -5.217340
-26.363701 1.803546 -5.215768
-26.305470 1.723519 -5.144854
-26.267641 1.677472 -5.102294
-26.258173 1.666628 -5.092044
-26.237904 1.636544 -5.066043
-26.227901 1.620984 -5.056509
-26.215885 1.609669 -5.047866
-26.178257 1.463000 -4.976781
-26.173197 1.442056 -4.967134
-26.172306 1.433647 -4.965118
-26.171982 1.425769 -4.964060
-26.171732 1.390979 -4.959702
-26.170769 1.338989 -4.953032
-26.173082 1.293671 -4.948056
-26.174244 1.286378 -4.947465
-26.187254 1.210375 -4.942639
-26.190884 1.197934 -4.943409
-26.191559 1.193554 -4.943512
-26.193615 1.189300 -4.944514
-26.199520 1.182406 -4.947002
-26.221384 1.156529 -4.956243
-26.270258 1.094662 -4.977185
-26.285603 1.074326 -4.983826
-26.315304 1.046810 -5.001910
-26.275661 1.047816 -4.984396
-26.321516 1.043687 -5.005203
-26.351536 1.039033 -5.019188
-26.372478 1.038697 -5.028404
-26.375437 1.038579 -5.029720
-26.379896 1.038447 -5.032392
-26.423410 1.037155 -5.058486
-26.431814 1.037182 -5.063258
-26.449955 1.036508 -5.074379
-26.522852 1.037164 -5.120999
-26.528454 1.036771 -5.124678
-26.530767 1.036087 -5.126306
-26.532375 1.035453 -5.127472
-26.560562 1.033812 -5.145902
-26.575146 1.032148 -5.155610
-26.579556 1.031714 -5.158601
-26.580935 1.031317 -5.159595
-26.585320 1.030534 -5.162646
-26.627836 1.026170 -5.191552
-26.643297 1.024547 -5.202069
-26.779127 1.014332 -5.293616
-26.782524 1.014133 -5.295894
-26.789171 1.013744 -5.300352
-26.857950 1.009740 -5.345736
-26.904987 1.006818 -5.382554
-26.931335 1.006101 -5.402970
-26.942410 1.005345 -5.411927
-26.978933 1.000911 -5.441863
-27.017632 0.994995 -5.473827
-27.024319 0.992595 -5.479633
-27.098370 0.980505 -5.540955
-27.215847 0.961367 -5.637072
-27.225088 0.959819 -5.645835
-27.234407 0.955260 -5.655692
-27.250937 0.952482 -5.670208
-27.258949 0.949783 -5.679434
-27.395390 0.905061 -5.831542
-27.446438 0.888448 -5.887116
-27.459808 0.883990 -5.902590
-27.505949 0.865045 -5.957038
-27.510565 0.863212 -5.962465
-27.532526 0.854138 -5.988398
-27.566000 0.841495 -6.024505
-27.640455 0.812595 -6.105030
-27.642088 0.811882 -6.106814
-27.673489 0.798029 -6.142797
-27.698355 0.786677 -6.171420
-27.776321 0.751460 -6.256773
-27.788397 0.745804 -6.270054
-27.811169 0.735138 -6.295103
-27.853384 0.715254 -6.343216
-27.867687 0.708414 -6.359135
-27.890375 0.696290 -6.382728
-27.987843 0.643485 -6.485261
-28.004734 0.635722 -6.502675
-28.044147 0.617038 -6.543460
-28.046745 0.616420 -6.544333
-28.047665 0.615435 -6.546795
-28.105942 0.585763 -6.602824
-28.152924 0.561550 -6.648886
-28.166124 0.554725 -6.661835
-28.168165 0.553759 -6.663814
-28.200436 0.538297 -6.694740
-28.214771 0.531760 -6.708978
-28.281858 0.503482 -6.768225
-28.312878 0.488788 -6.796575
-28.368742 0.462737 -6.846447
-28.370983 0.461716 -6.848439
-28.373692 0.460397 -6.850872
-28.432343 0.439105 -6.896710
-28.491535 0.414493 -6.945703
-28.493170 0.413967 -6.946669
-28.522913 0.400244 -6.971269
-28.547741 0.386809 -6.993062
-28.591326 0.365278 -7.026435
-28.595465 0.363201 -7.029679
-28.603817 0.358878 -7.036252
-28.670839 0.318140 -7.090299
-28.697342 0.299962 -7.112112
-28.732246 0.275853 -7.140554
-28.745918 0.264374 -7.152576
-28.779064 0.238075 -7.178616
-28.794329 0.225698 -7.190662
-28.864180 0.165141 -7.246542
-28.866016 0.163432 -7.248033
-28.905334 0.126856 -7.279972
-28.931850 0.102183 -7.301677
-28.940056 0.092966 -7.308709
-28.971157 0.057696 -7.335430
-28.973740 0.055044 -7.337200
-29.015245 0.001518 -7.372241
-29.032558 -0.020868 -7.386757
-29.045856 -0.039586 -7.398192
-29.053740 -0.050694 -7.404904
-29.079855 -0.092182 -7.428298
-29.136574 -0.178743 -7.473439
-29.144726 -0.192520 -7.480126
-29.171240 -0.239679 -7.502131
-29.202139 -0.296171 -7.527545
-29.265144 -0.407702 -7.573421
-29.275877 -0.429842 -7.581999
-29.291853 -0.461625 -7.593353
-29.320951 -0.525206 -7.615324
-29.345827 -0.578557 -7.632473
-29.370621 -0.632032 -7.649594
-29.398680 -0.696172 -7.669312
-29.419840 -0.748508 -7.684558
-29.435108 -0.786477 -7.695579
-29.457939 -0.842081 -7.710350
-29.458685 -0.843884 -7.710783
-29.483906 -0.908715 -7.725718
-29.484768 -0.910929 -7.726220
-29.494991 -0.936814 -7.732153
-29.540098 -1.064135 -7.758955
-29.543186 -1.072846 -7.760767
-29.548944 -1.091449 -7.764230
-29.557673 -1.120231 -7.769707
-29.585808 -1.209603 -7.783623
-29.612068 -1.292698 -7.795157
-29.621944 -1.328023 -7.799533
-29.623148 -1.331975 -7.800063
-29.623913 -1.334418 -7.800274
-29.628841 -1.350245 -7.801639
-29.634796 -1.368698 -7.802486
-29.646610 -1.405496 -7.804159
-29.671183 -1.491988 -7.806962
-29.681133 -1.526512 -7.807217
-29.685694 -1.541777 -7.807384
-29.708063 -1.616649 -7.808205
-29.717918 -1.649802 -7.808552
-29.729595 -1.687891 -7.807630
-29.737629 -1.719015 -7.806670
-29.752634 -1.776564 -7.804269
-29.769165 -1.844627 -7.801255
-29.772152 -1.856638 -7.800439
-29.777821 -1.879428 -7.798891
-29.810596 -1.995816 -7.792289
-29.833698 -2.080926 -7.791176
-29.834713 -2.084486 -7.790919
-29.845526 -2.119393 -7.788617
-29.895824 -2.298603 -7.775445
-29.925953 -2.413511 -7.771966
-29.927269 -2.419043 -7.771762
-29.937117 -2.460313 -7.770254
-29.942892 -2.483508 -7.769469
-29.943903 -2.487865 -7.769302
-29.960424 -2.553982 -7.764085
-30.013987 -2.765807 -7.744963
-30.028589 -2.823527 -7.739728
-30.031139 -2.834724 -7.738172
-30.051849 -2.924810 -7.725243
-30.058945 -2.956298 -7.720705
-30.067638 -2.995338 -7.715353
-30.098413 -3.132495 -7.696589
-30.109484 -3.179125 -7.687807
-30.112898 -3.193755 -7.685282
-30.121651 -3.244397 -7.676303
-30.126968 -3.275197 -7.670950
-30.146328 -3.385687 -7.650557
-30.158937 -3.456036 -7.636399
-30.159958 -3.461974 -7.635199
-30.174547 -3.565703 -7.613904
-30.177435 -3.585755 -7.609795
-30.182226 -3.624983 -7.604649
-30.182602 -3.628766 -7.604144
-30.183113 -3.633731 -7.603486
-30.184681 -3.646818 -7.600709
-30.186712 -3.663605 -7.597146
-30.212250 -3.828463 -7.562265
-30.215973 -3.867892 -7.553878
-30.216373 -3.872135 -7.552976
-30.220798 -3.930320 -7.547066
-30.224483 -3.970019 -7.539003
-30.236750 -4.065160 -7.519477
-30.238894 -4.096511 -7.513155
-30.241806 -4.144761 -7.503448
-30.242764 -4.162430 -7.500371
-30.244404 -4.190984 -7.494980
-30.254549 -4.327619 -7.459191
-30.254654 -4.330526 -7.458450
-30.255548 -4.370609 -7.448359
-30.256935 -4.427204 -7.433558
-30.257875 -4.474961 -7.421116
-30.258022 -4.479441 -7.419937
-30.259470 -4.524044 -7.408202
-30.260702 -4.550250 -7.398122
-30.259039 -4.610898 -7.376196
-30.257597 -4.657297 -7.360940
-30.256708 -4.685609 -7.351041
-30.247133 -4.841726 -7.301764
-30.246998 -4.850861 -7.297408
-30.246454 -4.864154 -7.291219
-30.246248 -4.866661 -7.290097
-30.245457 -4.876318 -7.285775
-30.239643 -4.952477 -7.248049
-30.230730 -5.043029 -7.204077
-30.227245 -5.077271 -7.188323
-30.225323 -5.088613 -7.183515
-30.216171 -5.142609 -7.160620
-30.214756 -5.149051 -7.158060
-30.209146 -5.174209 -7.148743
-30.204773 -5.198069 -7.132413
-30.197918 -5.234094 -7.107944
-30.197168 -5.238022 -7.105304
-30.193760 -5.250142 -7.097949
-30.177473 -5.308049 -7.062812
-30.168438 -5.337675 -7.045347
-30.147238 -5.407169 -7.004381
-30.127323 -5.468367 -6.969211
-30.123228 -5.482454 -6.956259
-30.116545 -5.502395 -6.938742
-30.111382 -5.515429 -6.928032
-30.098433 -5.548417 -6.899896
-30.071093 -5.608111 -6.852614
-30.067282 -5.616396 -6.846363
-30.050209 -5.653524 -6.818355
-30.042948 -5.666776 -6.809485
-30.016479 -5.715086 -6.777152
-30.011856 -5.723732 -6.768850
-29.952219 -5.828619 -6.672461
-29.951057 -5.830473 -6.670886
-29.931221 -5.862009 -6.645610
-29.906111 -5.900570 -6.615742
-29.902639 -5.905698 -6.611926
-29.892075 -5.922570 -6.594055
-29.865995 -5.963707 -6.550936
-29.844614 -5.996869 -6.516678
-29.827408 -6.023825 -6.485538
-29.807945 -6.054321 -6.450324
-29.772058 -6.110768 -6.382471
-29.762335 -6.125488 -6.365279
-29.744305 -6.152903 -6.333147
-29.651814 -6.293589 -6.165320
-29.648752 -6.298233 -6.160394
-29.642708 -6.307855 -6.149829
-29.636759 -6.317238 -6.141518
-29.532412 -6.483866 -5.947052
-29.499012 -6.536594 -5.899114
-29.487337 -6.554259 -5.883488
-29.446596 -6.618770 -5.813295
-29.443695 -6.623272 -5.808440
-29.427025 -6.649373 -5.780186
-29.423590 -6.654563 -5.774660
-29.412012 -6.671735 -5.760809
-29.406134 -6.680416 -5.753576
-29.382103 -6.715693 -5.725542
-29.323753 -6.800502 -5.657969
-29.317141 -6.809495 -5.650022
-29.298353 -6.812225 -5.658399
-29.279413 -6.835811 -5.638577
-29.277748 -6.837755 -5.637011
-29.163944 -6.967683 -5.564953
-29.158163 -6.974507 -5.561057
-29.125948 -7.012830 -5.535728
-29.121090 -7.018045 -5.532536
-29.034527 -7.110292 -5.496332
-29.002699 -7.144366 -5.478085
-28.985847 -7.161493 -5.469193
-28.972620 -7.173506 -5.463419
-28.929773 -7.213575 -5.443746
-28.916098 -7.226184 -5.439709
-28.847303 -7.288728 -5.419969
-28.823528 -7.310357 -5.409687
-28.784712 -7.342323 -5.395310
-28.696430 -7.407175 -5.368272
-28.692739 -7.409853 -5.367168
-28.690298 -7.411569 -5.366998
-28.639717 -7.447369 -5.361176
-28.575480 -7.486982 -5.355527
-28.528913 -7.505810 -5.354383
-28.485876 -7.523204 -5.356151
-28.473730 -7.529335 -5.355862
-28.461561 -7.535580 -5.353814
-28.431795 -7.551080 -5.344946
-28.385319 -7.574760 -5.340022
-28.340660 -7.592264 -5.334967
-28.251690 -7.622845 -5.324634
-28.193567 -7.639838 -5.317698
-28.181910 -7.643315 -5.314785
-28.142008 -7.655553 -5.304790
-28.115068 -7.663703 -5.300266
-28.041807 -7.682808 -5.288570
-28.004234 -7.692051 -5.282683
-27.971590 -7.701027 -5.277379
-27.948538 -7.706763 -5.273755
-27.855728 -7.730882 -5.241834
-27.846489 -7.733159 -5.238699
-27.745916 -7.757177 -5.218706
-27.698879 -7.768740 -5.203262
-27.688652 -7.771173 -5.199954
-27.677420 -7.773901 -5.195436
-27.663847 -7.776816 -5.190249
-27.547359 -7.801709 -5.145813
-27.493238 -7.813489 -5.121252
-27.476252 -7.816654 -5.113918
-27.409920 -7.827696 -5.086200
-27.344385 -7.838545 -5.063976
-27.314671 -7.843684 -5.050385
-27.289444 -7.848020 -5.038865
-27.263670 -7.852330 -5.029018
-27.147572 -7.868480 -4.986819
-27.115641 -7.866014 -4.979768
-27.100824 -7.867781 -4.974579
-27.087849 -7.869555 -4.969882
-27.054327 -7.874338 -4.952375
-26.967031 -7.887390 -4.906367
-26.808798 -7.909856 -4.823799
-26.800772 -7.910896 -4.820257
-26.792477 -7.911985 -4.816510
-26.670866 -7.927567 -4.764118
-26.513809 -7.938262 -4.702296
-26.508322 -7.938674 -4.699712
-26.370644 -7.944140 -4.653003
-26.314674 -7.944575 -4.635007
-26.293621 -7.944677 -4.629158
-26.203299 -7.948607 -4.602397
-26.177343 -7.949810 -4.594079
-26.161003 -7.950561 -4.588848
-26.147743 -7.950564 -4.584894
-26.097195 -7.949760 -4.574178
-26.089479 -7.949661 -4.572438
-25.987247 -7.943141 -4.553420
-25.953278 -7.941005 -4.546831
-25.949492 -7.940773 -4.546092
-25.837091 -7.929522 -4.525926
-25.829081 -7.928743 -4.524985
-25.749495 -7.921427 -4.516513
-25.720129 -7.918153 -4.516118
-25.709818 -7.916947 -4.516006
-25.706247 -7.916261 -4.516088
-25.693686 -7.912838 -4.516836
-25.615215 -7.891738 -4.521381
-25.548676 -7.874296 -4.525033
-25.515354 -7.864489 -4.527349
-25.501593 -7.860437 -4.528320
-25.458445 -7.843936 -4.533036
-25.444824 -7.838723 -4.534670
-25.416370 -7.828000 -4.537775
-25.376358 -7.813235 -4.541996
-25.303940 -7.783667 -4.557599
-25.300093 -7.782096 -4.558427
-25.236586 -7.751872 -4.574009
-25.215359 -7.740240 -4.579896
-25.210930 -7.737745 -4.581305
-25.161598 -7.710513 -4.596723
-25.148550 -7.704786 -4.600085
-25.132238 -7.697565 -4.604927
-25.093369 -7.680554 -4.616370
-25.039721 -7.650303 -4.635528
-24.999262 -7.627217 -4.651256
-24.947571 -7.599575 -4.670537
-24.934050 -7.592164 -4.676565
-24.931099 -7.590010 -4.678133
-24.907650 -7.573015 -4.690528
-24.886627 -7.557747 -4.701859
-24.858883 -7.538141 -4.716553
-24.792919 -7.492013 -4.751256
-24.787653 -7.487566 -4.754394
-24.782663 -7.483192 -4.757441
-24.763199 -7.467264 -4.768789
-24.712748 -7.425258 -4.803640
-24.686844 -7.403873 -4.820147
-24.682465 -7.400276 -4.822753
-24.664932 -7.383094 -4.835309
-24.652275 -7.370701 -4.844243
-24.571751 -7.285402 -4.903944
-24.563299 -7.275418 -4.910670
-24.516396 -7.219955 -4.948020
-24.507494 -7.209454 -4.955268
-24.474939 -7.168114 -4.983190
-24.461466 -7.151491 -4.991824
-24.439510 -7.122176 -5.006617
-24.373262 -7.032231 -5.058765
-24.319069 -6.958692 -5.101414
-24.291706 -6.920369 -5.123331
-24.286026 -6.912434 -5.127796
-24.267942 -6.887243 -5.141990
-24.213642 -6.811669 -5.184388
-24.203505 -6.797390 -5.192264
-24.190134 -6.777220 -5.203035
-24.167177 -6.737366 -5.224099
-24.141430 -6.694036 -5.242756
-24.136267 -6.685317 -5.246568
-24.115030 -6.644843 -5.263521
-24.089069 -6.593010 -5.284739
-24.062040 -6.536102 -5.307446
-24.035763 -6.469375 -5.331904
-24.028938 -6.452072 -5.338250
-24.011517 -6.408733 -5.351948
-23.997023 -6.373013 -5.362327
-23.991854 -6.360279 -5.366028
-23.969282 -6.302156 -5.382534
-23.967152 -6.296615 -5.384237
-23.945129 -6.239430 -5.401838
-23.937601 -6.217938 -5.408101
-23.906300 -6.130657 -5.428418
-23.884604 -6.069812 -5.443461
-23.866693 -6.019578 -5.455879
-23.865881 -6.017366 -5.456246
-23.854485 -5.983965 -5.461441
-23.853979 -5.982488 -5.461672
-23.842823 -5.951314 -5.466718
-23.833967 -5.926301 -5.471566
-23.832235 -5.921407 -5.472515
-23.788847 -5.798326 -5.496283
-23.771654 -5.749644 -5.505698
-23.747627 -5.683371 -5.512773
-23.729305 -5.632899 -5.518172
-23.698790 -5.546115 -5.527046
-23.690514 -5.522544 -5.529575
-23.679562 -5.491565 -5.532208
-23.677847 -5.486712 -5.532619
-23.609169 -5.305337 -5.549803
-23.585651 -5.246794 -5.555854
-23.584988 -5.243433 -5.555719
-23.582207 -5.236078 -5.556117
-23.504335 -5.028368 -5.567051
-23.500690 -5.018196 -5.567511
-23.491106 -4.990299 -5.568580
-23.430849 -4.816603 -5.569865
-23.405077 -4.742166 -5.570890
-23.388840 -4.694572 -5.569984
-23.366297 -4.633068 -5.569576
-23.349562 -4.587422 -5.569670
-23.345726 -4.576966 -5.569690
-23.325766 -4.521665 -5.569665
-23.319397 -4.503998 -5.569016
-23.307802 -4.471847 -5.568133
-23.290958 -4.425167 -5.567545
-23.242521 -4.303687 -5.568253
-23.204378 -4.208014 -5.566444
-23.188494 -4.165171 -5.565062
-23.162783 -4.095552 -5.562764
-23.146730 -4.052284 -5.560667
-23.062578 -3.829703 -5.553451
-23.029388 -3.742549 -5.548443
-23.026772 -3.735598 -5.548029
-22.992260 -3.644867 -5.542797
-22.971603 -3.590371 -5.540292
-22.957121 -3.552367 -5.537856
-22.945414 -3.522558 -5.536104
-22.944056 -3.518832 -5.535838
-22.907637 -3.404624 -5.525102
-22.903109 -3.391103 -5.524108
-22.892132 -3.358538 -5.521364
-22.889114 -3.349564 -5.520670
-22.872240 -3.306702 -5.518654
-22.868183 -3.296354 -5.518260
-22.865482 -3.289544 -5.517835
-22.855635 -3.265908 -5.516608
-22.839354 -3.226709 -5.514914
-22.811773 -3.160456 -5.511744
-22.754419 -3.014701 -5.504169
-22.735926 -2.967993 -5.500872
-22.723204 -2.935951 -5.498628
-22.721275 -2.930582 -5.498149
-22.658705 -2.755663 -5.483896
-22.639080 -2.700376 -5.480183
-22.633526 -2.684839 -5.478934
-22.632408 -2.681708 -5.478681
-22.626848 -2.665577 -5.477281
-22.614525 -2.615727 -5.470546
-22.613539 -2.611756 -5.470010
-22.571978 -2.444219 -5.447446
-22.571423 -2.441966 -5.447170
-22.570625 -2.438739 -5.446760
-22.560755 -2.398745 -5.441682
-22.523926 -2.214341 -5.414092
-22.523521 -2.212314 -5.413794
-22.507395 -2.127474 -5.400977
-22.503023 -2.104505 -5.397512
-22.498995 -2.083585 -5.394103
-22.492735 -2.051115 -5.388820
-22.489925 -2.031316 -5.385106
-22.483942 -1.933999 -5.363029
-22.483559 -1.927530 -5.361646
-22.482464 -1.912301 -5.358488
-22.468567 -1.720934 -5.318106
-22.466608 -1.693682 -5.312453
-22.465004 -1.670950 -5.307858
-22.466869 -1.471535 -5.260530
-22.466888 -1.469489 -5.260045
-22.467402 -1.448832 -5.254998
-22.468292 -1.409601 -5.245119
-22.470285 -1.344598 -5.230595
-22.471029 -1.320532 -5.225246
-22.476200 -1.269597 -5.212259
-22.484289 -1.200091 -5.194065
-22.485600 -1.188871 -5.191125
-22.490976 -1.142244 -5.178740
-22.498867 -1.099624 -5.166948
-22.506962 -1.055282 -5.154245
-22.516069 -1.016374 -5.142179
-22.516581 -1.014196 -5.141503
-22.519579 -1.004125 -5.138084
-22.522285 -0.995285 -5.135350
-22.523861 -0.990856 -5.133907
-22.527861 -0.979713 -5.130265
-22.542519 -0.939241 -5.117641
-22.568205 -0.872664 -5.096197
-22.587135 -0.830447 -5.081465
-22.587795 -0.829017 -5.081034
-22.618999 -0.758034 -5.060301
-22.632902 -0.733253 -5.051830
-22.658798 -0.689506 -5.036322
-22.686611 -0.642866 -5.020705
-22.689213 -0.638562 -5.019419
-22.697998 -0.624020 -5.015076
-22.698879 -0.622787 -5.014664
-22.752527 -0.547923 -4.990614
-22.790499 -0.487911 -4.972966
-22.847086 -0.409985 -4.947691
-22.856750 -0.396789 -4.943714
-22.910864 -0.322658 -4.921474
-22.924177 -0.304108 -4.916125
-22.956558 -0.270198 -4.903902
-22.959696 -0.263743 -4.902495
-22.958952 -0.261647 -4.902575
-22.955297 -0.258229 -4.903445
-22.953360 -0.254509 -4.903773
-22.954075 -0.247980 -4.903096
-22.964767 -0.238682 -4.899195
-22.976395 -0.237214 -4.895558
-22.985460 -0.238000 -4.892859
-22.994232 -0.238616 -4.890236
-23.027115 -0.206565 -4.877991
-23.122515 -0.116620 -4.850848
-23.143240 -0.097222 -4.844956
-23.161081 -0.078443 -4.839807
-23.178499 -0.060301 -4.835310
-23.192171 -0.046468 -4.832918
-23.201511 -0.037011 -4.831271
-23.278711 0.025592 -4.816761
-23.283295 0.029747 -4.815925
-23.284817 0.031014 -4.815641
-23.291365 0.036844 -4.814439
-23.316320 0.057948 -4.809800
-23.337986 0.074765 -4.805685
-23.339624 0.076145 -4.805380
-23.346220 0.116044 -4.806114
-23.365292 0.233854 -4.810379
-23.274647 0.227331 -4.830190
-23.272390 0.227068 -4.830675
-23.242233 0.221643 -4.837031
-23.221560 0.210452 -4.840845
-23.206535 0.212106 -4.844368
-23.170937 0.216975 -4.854413
-23.031149 0.200910 -4.890040
-22.941586 0.196365 -4.913494
-22.928719 0.195856 -4.917489
-22.832586 0.192391 -4.948839
-22.825340 0.191983 -4.951194
-22.692066 0.185372 -4.994546
-22.680538 0.184926 -4.998794
-22.672104 0.185409 -5.001930
-22.631506 0.194461 -5.017255
-22.586296 0.204419 -5.033608
-22.576794 0.204762 -5.036992
-22.539560 0.206092 -5.050189
-22.525503 0.206408 -5.054420
-22.472513 0.215354 -5.074151
-22.399122 0.227564 -5.100441
-22.294893 0.247378 -5.137848
-22.288601 0.248651 -5.140579
-22.249969 0.257959 -5.157353
-22.217117 0.265736 -5.170563
-22.215517 0.266114 -5.171206
-22.184429 0.273472 -5.183704
-22.090372 0.294291 -5.221550
-22.086609 0.296165 -5.223044
-22.007788 0.327080 -5.254502
-21.992479 0.332997 -5.260612
-21.985590 0.335716 -5.263775
-21.969959 0.341870 -5.270836
-21.945856 0.352526 -5.281674
-21.887951 0.383955 -5.307476
-21.849758 0.407202 -5.324395
-21.793941 0.441203 -5.349289
-21.750202 0.468693 -5.368785
-21.739801 0.475220 -5.373354
-21.727100 0.483232 -5.379206
-21.715981 0.491527 -5.384304
-21.690449 0.510710 -5.396467
-21.583513 0.597826 -5.447134
-21.581812 0.599331 -5.447934
-21.560970 0.620201 -5.457646
-21.512356 0.669174 -5.482131
-21.402470 0.779448 -5.534519
-21.398859 0.783163 -5.536236
-21.397188 0.784967 -5.537024
-21.393877 0.788703 -5.538581
-21.388788 0.794605 -5.540964
-21.343500 0.847475 -5.564534
-21.327036 0.866756 -5.573101
-21.323437 0.870933 -5.574760
-21.277128 0.933886 -5.595370
-21.231100 0.994003 -5.615773
-21.225626 1.001238 -5.618506
-21.185377 1.054314 -5.636388
-21.157457 1.091094 -5.648796
-21.140602 1.113177 -5.655492
-21.113955 1.146152 -5.666285
-21.098310 1.165642 -5.673527
-21.018335 1.260337 -5.711080
-20.986958 1.297403 -5.725254
-20.981503 1.304144 -5.728353
-20.933731 1.362103 -5.748005
-20.932873 1.363402 -5.748931
-20.924364 1.374948 -5.752371
-20.886736 1.425984 -5.767488
-20.864079 1.456730 -5.776587
-20.851309 1.474010 -5.781725
-20.810799 1.538268 -5.796721
-20.806074 1.545772 -5.798471
-20.785196 1.579398 -5.806129
-20.759588 1.620149 -5.813922
-20.676924 1.751748 -5.839257
-20.643547 1.809568 -5.848662
-20.633362 1.828137 -5.851368
-20.622646 1.847552 -5.853877
-20.594719 1.898168 -5.860445
-20.541727 1.996600 -5.872441
-20.512983 2.049973 -5.878955
-20.509094 2.057110 -5.879461
-20.492338 2.087773 -5.881671
-20.488564 2.094679 -5.882169
-20.473555 2.122561 -5.884047
-20.415318 2.231514 -5.894003
-20.414389 2.233280 -5.894155
-20.383650 2.293837 -5.897350
-20.348949 2.366114 -5.899929
-20.319559 2.427403 -5.902388
-20.294966 2.478520 -5.903829
-20.292423 2.483801 -5.903979
-20.267042 2.531340 -5.906886
-20.261780 2.541157 -5.907395
-20.252596 2.560073 -5.908084
-20.242268 2.581308 -5.908751
-20.229958 2.606593 -5.909414
-20.225603 2.614588 -5.909908
-20.202578 2.656730 -5.912954
-20.156137 2.741529 -5.918530
-20.148287 2.756285 -5.920084
-20.143015 2.766009 -5.919896
-20.094643 2.848890 -5.924848
-20.046535 2.931176 -5.929340
-20.030003 2.959535 -5.931233
-20.013906 2.987099 -5.932862
-19.956207 3.086163 -5.939839
-19.953585 3.090667 -5.940155
-19.936432 3.120250 -5.942191
-19.910667 3.164596 -5.944917
-19.848629 3.279474 -5.948535
-19.821938 3.328864 -5.949952
-19.807901 3.354737 -5.950316
-19.805162 3.359784 -5.950387
-19.765558 3.432979 -5.951359
-19.717308 3.521638 -5.950551
-19.713011 3.529217 -5.950583
-19.652657 3.635765 -5.951802
-19.643387 3.651913 -5.952059
-19.590212 3.744573 -5.953626
-19.575748 3.769694 -5.953709
-19.572807 3.774802 -5.953725
-19.495436 3.908365 -5.954442
-19.479013 3.936754 -5.954782
-19.465849 3.959538 -5.955044
-19.431143 4.019366 -5.954735
-19.429483 4.022340 -5.954682
-19.355858 4.156428 -5.953670
-19.290970 4.274217 -5.951362
-19.278297 4.298368 -5.950508
-19.259098 4.334903 -5.949003
-19.235205 4.382078 -5.946522
-19.166487 4.521636 -5.938456
-19.147764 4.559898 -5.936176
-19.145061 4.565422 -5.935849
-19.113245 4.634185 -5.930694
-19.098417 4.666148 -5.928019
-19.035009 4.806275 -5.915335
-19.008720 4.864053 -5.908992
-18.994825 4.894802 -5.906348
-18.992464 4.900028 -5.905899
-18.955889 4.983925 -5.897932
-18.947906 5.002243 -5.896225
-18.935373 5.031579 -5.893353
-18.917189 5.075941 -5.888572
-18.897484 5.123948 -5.883172
-18.873232 5.186555 -5.875310
-18.857677 5.230947 -5.868804
-18.835327 5.295062 -5.860328
-18.834249 5.298135 -5.859886
-18.805676 5.379185 -5.848160
-18.784546 5.445543 -5.837341
-18.765186 5.511916 -5.825565
-18.756899 5.540395 -5.820628
-18.756371 5.542273 -5.820292
-18.755001 5.547141 -5.819415
-18.728695 5.640798 -5.802941
-18.721989 5.664698 -5.798789
-18.697329 5.759470 -5.781310
-18.691175 5.783127 -5.776947
-18.685972 5.803086 -5.773180
-18.677801 5.837751 -5.766587
-18.666981 5.885494 -5.757787
-18.642769 5.991967 -5.737511
-18.596296 6.195391 -5.697208
-18.583054 6.252920 -5.685078
-18.580719 6.262883 -5.683089
-18.578527 6.272723 -5.681066
-18.553755 6.392402 -5.655487
-18.544743 6.436272 -5.646578
-18.543369 6.442853 -5.645069
-18.535559 6.488010 -5.635390
-18.527338 6.535188 -5.624796
-18.525717 6.543267 -5.623083
-18.514214 6.600826 -5.611214
-18.502216 6.690777 -5.589770
-18.500605 6.706879 -5.585674
-18.499519 6.717622 -5.582901
-18.492958 6.820548 -5.554486
-18.493011 6.830912 -5.551280
-18.493269 6.860701 -5.542645
-18.497103 6.964801 -5.511127
-18.497280 6.970303 -5.509315
-18.500433 6.997841 -5.499207
-18.513945 7.106482 -5.458838
-18.527529 7.192530 -5.425546
-18.528990 7.200665 -5.422317
-18.532564 7.220049 -5.415067
-18.545294 7.290875 -5.386553
-18.545828 7.293572 -5.385447
-18.562975 7.379915 -5.350372
-18.568520 7.403197 -5.340499
-18.575666 7.433136 -5.327796
-18.586655 7.479537 -5.307825
-18.589407 7.491197 -5.302742
-18.600281 7.543983 -5.280466
-18.601971 7.552192 -5.276995
-18.602636 7.554434 -5.275964
-18.623974 7.626447 -5.242607
-18.630093 7.643522 -5.234214
-18.647213 7.690976 -5.211480
-18.650717 7.700776 -5.206635
-18.653090 7.707567 -5.203300
-18.661335 7.731016 -5.192034
-18.698092 7.802458 -5.152858
-18.703117 7.812231 -5.147484
-18.722155 7.856989 -5.124621
-18.731522 7.879021 -5.113360
-18.740589 7.897782 -5.103316
-18.755730 7.929083 -5.086596
-18.800688 8.013691 -5.039725
-18.801720 8.015635 -5.038649
-18.810951 8.031069 -5.029669
-18.822058 8.049384 -5.019569
-18.823660 8.051979 -5.018126
-18.871296 8.127437 -4.980227
-18.940737 8.222446 -4.928760
-18.951679 8.235901 -4.921449
-18.990566 8.281879 -4.900776
-18.999226 8.291557 -4.896277
-19.026396 8.322803 -4.881993
-19.027407 8.323945 -4.880882
-19.126001 8.428054 -4.831341
-19.127466 8.430139 -4.830498
-19.159737 8.458470 -4.815147
-19.175732 8.473012 -4.807788
-19.176991 8.473918 -4.807366
-19.187057 8.482725 -4.802860
-19.216417 8.507959 -4.792321
-19.292950 8.572858 -4.768295
-19.306879 8.584599 -4.763933
-19.317980 8.597948 -4.759960
-19.341148 8.613641 -4.753175
-19.390875 8.655895 -4.737555
-19.438749 8.701494 -4.721909
-19.456108 8.711492 -4.716854
-19.457771 8.712784 -4.716536
-19.467403 8.720909 -4.713517
-19.497881 8.745885 -4.706873
-19.502539 8.749779 -4.705852
-19.507469 8.753805 -4.704780
-19.535950 8.777365 -4.698557
-19.570320 8.805297 -4.692994
-19.596733 8.827372 -4.688690
-19.669022 8.887849 -4.676872
-19.673296 8.891877 -4.676185
-19.696295 8.914190 -4.672289
-19.653589 8.946936 -4.676019
-19.625891 8.963824 -4.680768
-19.608898 8.973945 -4.683658
-19.607899 8.975105 -4.683879
-19.606243 8.977048 -4.684247
-19.571350 9.011950 -4.691456
-19.560751 9.024290 -4.693803
-19.553669 9.035969 -4.695679
-19.549797 9.041683 -4.696919
-19.539259 9.059881 -4.700591
-19.532717 9.071042 -4.702856
-19.527090 9.078251 -4.704534
-19.510744 9.097307 -4.709103
-19.492792 9.115395 -4.713997
-19.491140 9.118328 -4.714582
-19.481741 9.128810 -4.717209
-19.476068 9.138154 -4.719135
-19.473129 9.143781 -4.720222
-19.467480 9.155098 -4.722366
-19.460051 9.162911 -4.724391
-19.454842 9.167568 -4.726132
-19.453226 9.169150 -4.726699
-19.438454 9.178643 -4.730925
-19.422976 9.186447 -4.734942
-19.415092 9.194851 -4.737840
-19.411440 9.205000 -4.740389
-19.405081 9.211593 -4.742692
-19.397194 9.218180 -4.745240
-19.396698 9.220032 -4.745678
-19.394396 9.232470 -4.748448
-19.388908 9.240361 -4.750860
-19.386572 9.243258 -4.751798
-19.386127 9.245774 -4.752354
-19.384327 9.258028 -4.755029
-19.384014 9.261353 -4.755724
-19.398424 9.279864 -4.756953
-19.398746 9.281877 -4.757291
-19.398335 9.283907 -4.757752
-19.419327 9.295939 -4.756640
-19.453485 9.315616 -4.754892
-19.469212 9.327105 -4.754556
-19.432077 9.315205 -4.758286
-19.332663 9.283378 -4.768436
-19.324373 9.280630 -4.769262
-19.283041 9.268895 -4.773773
-19.278610 9.267445 -4.774220
-19.266499 9.263633 -4.775470
-19.156574 9.230399 -4.792531
-19.114138 9.220509 -4.799608
-19.069595 9.206006 -4.806362
-19.043472 9.197659 -4.811054
-19.012758 9.188713 -4.820566
-18.986614 9.181445 -4.828688
-18.970453 9.178663 -4.833828
-18.864279 9.161668 -4.867676
-18.861565 9.161323 -4.868547
-18.857941 9.160853 -4.869669
-18.748549 9.155946 -4.904170
-18.717939 9.153289 -4.913736
-18.703724 9.153018 -4.918245
-18.697449 9.153061 -4.920245
-18.606249 9.156885 -4.955859
-18.600618 9.157081 -4.957909
-18.470272 9.169862 -5.005214
-18.405413 9.176573 -5.029960
-18.385305 9.178646 -5.037609
-18.382980 9.178885 -5.038492
-18.328846 9.180715 -5.058975
-18.254333 9.189487 -5.087349
-18.220346 9.193600 -5.100786
-18.218058 9.193911 -5.101688
-18.191584 9.197781 -5.112113
-18.176617 9.200106 -5.117999
-18.168621 9.201355 -5.121223
-18.162394 9.202308 -5.123608
-18.156717 9.203164 -5.125781
-18.149984 9.204184 -5.128226
-18.103449 9.211151 -5.145144
-18.058603 9.222664 -5.160944
-17.963182 9.240555 -5.195255
-17.946955 9.245213 -5.200921
-17.930618 9.249842 -5.206631
-17.815266 9.282239 -5.243855
-17.759995 9.297563 -5.259553
-17.749508 9.300569 -5.262518
-17.688601 9.324734 -5.278786
-17.588556 9.364317 -5.304509
-17.510132 9.395053 -5.322035
-17.495625 9.400704 -5.325283
-17.372105 9.453566 -5.352176
-17.358767 9.459285 -5.355136
-17.336912 9.469457 -5.359864
-17.320101 9.477014 -5.362111
-17.286369 9.492203 -5.366761
-17.271355 9.499036 -5.369201
-17.213345 9.526568 -5.378347
-17.160906 9.554808 -5.385791
-17.076942 9.601306 -5.397396
-17.066025 9.608164 -5.398704
-17.050974 9.617597 -5.400514
-17.026932 9.632569 -5.402608
-16.919617 9.704946 -5.411437
-16.889753 9.726262 -5.414397
-16.846077 9.757341 -5.417912
-16.843952 9.758890 -5.418075
-16.841797 9.760509 -5.418226
-16.792477 9.797188 -5.418944
-16.782822 9.804401 -5.419354
-16.760630 9.821670 -5.420235
-16.683649 9.881536 -5.423147
-16.653111 9.909397 -5.423082
-16.621275 9.937942 -5.423163
-16.613277 9.945042 -5.422832
-16.556080 10.004445 -5.417741
-16.554867 10.005707 -5.417633
-16.522060 10.037742 -5.415357
-16.515486 10.044164 -5.414908
-16.495811 10.065349 -5.412947
-16.480867 10.085198 -5.410276
-16.467905 10.102445 -5.408171
-16.445114 10.132991 -5.404400
-16.418802 10.168298 -5.399768
-16.396748 10.204939 -5.394161
-16.362976 10.260280 -5.383671
-16.346201 10.287916 -5.378411
-16.314005 10.343549 -5.367449
-16.311766 10.348273 -5.366401
-16.256701 10.464305 -5.341812
-16.217247 10.547747 -5.321802
-16.214363 10.553928 -5.320312
-16.212397 10.558442 -5.319196
-16.173582 10.640365 -5.299565
-16.153620 10.682811 -5.288325
-16.118498 10.745246 -5.272966
-16.112932 10.754556 -5.270743
-16.083307 10.803847 -5.259518
-16.074697 10.818153 -5.256341
-16.069292 10.825680 -5.254860
-16.041468 10.864712 -5.246474
-15.994488 10.928708 -5.234758
-15.915089 11.036691 -5.214159
-15.913183 11.039568 -5.213546
-15.843073 11.140304 -5.192851
-15.833132 11.154662 -5.189888
-15.826817 11.164364 -5.187796
-15.819187 11.176166 -5.185238
-15.767691 11.255738 -5.167574
-15.700932 11.359097 -5.144554
-15.682314 11.387976 -5.138113
-15.675030 11.399830 -5.135386
-15.659562 11.425008 -5.129657
-15.643694 11.452620 -5.123120
-15.601554 11.525919 -5.105461
-15.555387 11.617029 -5.082074
-15.527623 11.671782 -5.067721
-15.524852 11.677465 -5.066206
-15.523207 11.681535 -5.065044
-15.521341 11.686638 -5.063544
-15.512733 11.710192 -5.056610
-15.463745 11.845668 -5.016616
-15.450442 11.882451 -5.005726
-15.426960 11.947444 -4.987422
-15.409232 12.000654 -4.972111
-15.399536 12.032438 -4.962773
-15.392593 12.055151 -4.955753
-15.377500 12.117957 -4.935483
-15.377057 12.119796 -4.934892
-15.366185 12.173834 -4.917005
-15.356645 12.221212 -4.902084
-15.353838 12.241662 -4.895391
-15.352986 12.247856 -4.893386
-15.348745 12.304864 -4.874236
-15.343872 12.370352 -4.852357
-15.343760 12.392072 -4.844807
-15.345248 12.420387 -4.834644
-15.349163 12.500813 -4.808528
-15.350310 12.522546 -4.801454
-15.350938 12.535632 -4.796949
-15.352948 12.552960 -4.791058
-15.362361 12.631483 -4.763770
-15.365334 12.657067 -4.755518
-15.372528 12.711038 -4.737967
-15.377195 12.737138 -4.729293
-15.386059 12.785931 -4.713057
-15.390452 12.810776 -4.704268
-15.399108 12.858221 -4.687444
-15.405372 12.901545 -4.672325
-15.406066 12.906940 -4.670453
-15.407884 12.921417 -4.665648
-15.433475 13.045407 -4.623108
-15.442819 13.090871 -4.608027
-15.445210 13.106551 -4.602946
-15.445585 13.109028 -4.602185
-15.448346 13.121524 -4.598223
-15.454252 13.147866 -4.589679
-15.484085 13.266685 -4.551711
-15.487926 13.282348 -4.546428
