BEGIN_4
2.249018 -1.192465 3.027105
2.229002 -1.251271 3.142638
2.191628 -1.316949 3.234583
2.063344 -1.441363 3.181070
1.961329 -1.572211 3.343448
1.832718 -1.696236 3.406020
1.701087 -1.791867 3.352503
1.592929 -1.890525 3.492080
1.446487 -1.980078 3.434672
1.298014 -2.079402 3.514080
1.205533 -2.114410 3.347738
1.138191 -2.163304 3.475108
0.959884 -2.251783 3.497452
0.798367 -2.305804 3.343734
0.771717 -2.333340 3.515200
0.664899 -2.364341 3.429570
0.497213 -2.412817 3.400116
0.303188 -2.466444 3.454658
0.152360 -2.477477 3.306451
0.003243 -2.512588 3.419103
-0.103251 -2.511615 3.329348
-0.244389 -2.511637 3.292885
-0.476553 -2.498865 3.240139
-0.613249 -2.449892 3.033477
-0.823759 -2.424679 3.054309
-1.025266 -2.393432 3.085751
-1.209335 -2.352513 3.101875
-1.317575 -2.273918 2.943453
-1.515046 -2.173397 2.863371
-1.732810 -2.045290 2.793528
-1.972937 -1.887866 2.750951
-2.033661 -1.755035 2.549334
-2.243592 -1.575712 2.538042
-2.363191 -1.449393 2.520808
-2.452422 -1.383266 2.560281
-2.414706 -1.341893 2.456349
-2.520283 -1.256337 2.507456
-2.574327 -1.151255 2.476637
-2.652688 -1.010936 2.469572
-2.746031 -0.971916 2.565119
-2.808254 -0.868762 2.589524
-2.745744 -0.887750 2.513697
-2.794340 -0.717181 2.494898
-2.782410 -0.503634 2.381786
-2.864457 -0.485318 2.506811
-2.856129 -0.295392 2.441992
-2.854719 -0.055621 2.411727
-2.922822 0.132425 2.542368
-2.860472 0.383672 2.497292
-2.952559 0.487144 2.699557
-2.844541 0.620870 2.582295
-2.816800 0.815147 2.671698
-2.774411 0.987664 2.757619
-2.638770 1.178053 2.735992
-2.521494 1.395617 2.838650
-2.366664 1.590534 2.906119
-2.216270 1.757503 2.984881
-2.064218 1.899314 3.058252
-1.908411 2.029816 3.152346
-1.680371 2.174717 3.235348
-1.436209 2.293560 3.283754
-1.229392 2.372514 3.303196
-1.048025 2.427666 3.307208
-0.881788 2.503609 3.441076
-0.688189 2.500537 3.272885
-0.437080 2.546011 3.294666
-0.244322 2.544545 3.200187
-0.090642 2.562927 3.226295
0.092031 2.594892 3.318583
0.347676 2.567967 3.215618
0.488763 2.601419 3.350896
0.566656 2.555640 3.204506
0.743472 2.525323 3.151114
0.926253 2.521456 3.221842
1.110223 2.446844 3.088981
1.359618 2.432913 3.238330
1.505630 2.314465 3.042283
1.701010 2.230890 3.047737
1.908005 2.108362 3.039731
2.067029 1.968126 3.001518
2.186438 1.823877 2.957402
2.301225 1.641738 2.895937
2.394470 1.448658 2.822090
2.520365 1.321523 2.936958
2.573167 1.142091 2.877101
2.664836 0.999667 2.974677
2.730366 0.811528 3.017230
2.761931 0.614699 3.013343
2.818231 0.530677 3.138246
2.774879 0.414084 3.009225
2.813210 0.259699 3.121401
2.811799 0.019196 3.189054
2.740718 -0.161507 3.056587
2.709646 -0.321915 3.086681
2.653333 -0.533639 3.146595
2.609813 -0.727464 3.300678
2.497235 -0.866145 3.153338
2.374105 -1.017626 3.035392
END_4
